-16.257299 -10.971300 -0.217952 
-16.228201 -11.021700 -0.209320 
-16.507099 -10.714500 0.322206 
-14.670100 -11.290900 0.379688 
-12.863900 -12.490200 1.504920 
-12.897400 -12.479200 1.564890 
-12.693300 -12.536500 1.548530 
-12.519200 -12.573700 1.738000 
-15.010600 -12.010300 -2.758640 
-15.858000 -11.102700 -2.524530 
-13.905000 -12.346500 -2.254660 
-13.650900 -12.319400 -2.186860 
-14.385000 -12.230500 -1.598180 
-16.659201 -11.074900 -1.333040 
-15.874100 -11.389700 -1.264150 
-13.645800 -12.431600 -1.308350 
-14.035800 -12.305600 -1.274530 
-14.485300 -11.561100 -0.956707 
-16.507601 -10.950600 -0.741030 
-13.621800 -12.398600 -1.002460 
-13.420600 -12.485200 -0.974753 
-14.398400 -12.189600 -0.611837 
-15.233000 -11.663400 -0.461844 
-14.259200 -12.231500 -0.333430 
-15.705700 -11.269700 0.207622 
-13.043100 -12.581000 -0.136784 
-14.797800 -11.280500 0.306579 
-14.196700 -12.192000 0.151911 
-13.776100 -12.359800 0.075124 
-14.077700 -12.262000 0.158473 
-13.730400 -12.389200 0.169968 
-13.497300 -12.475800 0.126099 
-13.372300 -12.508800 0.128619 
-13.211100 -12.545900 0.134083 
-13.462400 -12.486900 0.461015 
-14.955700 -10.924700 1.409810 
-14.877500 -10.877600 1.431120 
-14.729900 -10.324400 1.479410 
-14.888200 -10.833900 1.481710 
-14.365900 -12.219900 1.186420 
-12.835900 -12.473800 1.559540 
-13.436900 -12.452800 -2.208350 
-15.992900 -11.170200 -1.414850 
-14.355200 -12.189800 -0.653536 
-16.080400 -11.204400 -0.107513 
-15.634900 -11.125500 0.300004 
-14.095900 -12.274800 0.430113 
-13.731800 -12.375700 0.397934 
-14.085600 -12.265000 0.951498 
-12.734000 -12.526800 1.518600 
-13.534100 -12.430800 -1.575290 
-14.333800 -12.170900 -0.786774 
-14.306400 -12.226000 -0.722620 
-16.524300 -10.673000 -0.251861 
-13.857900 -12.320400 0.381786 
-12.496700 -12.938400 1.512720 
-16.514200 -10.755500 -2.217790 
-14.584200 -12.071300 -0.553218 
-13.557800 -12.435400 0.211341 
-16.343100 -11.029600 -2.628190 
-13.713400 -12.388400 -2.146440 
-14.396200 -11.311600 0.634324 
-12.521200 -13.455500 1.544800 
-12.420200 -12.625400 1.717120 
-14.845600 -11.697600 0.862089 
-15.816300 -10.860900 -2.920000 
-15.129300 -11.968500 -3.481820 
-14.336600 -12.215600 -3.531500 
-14.180100 -12.265000 -3.198790 
-14.007000 -12.318500 -3.214650 
-13.791600 -12.371600 -2.876560 
-13.835900 -12.369100 -2.758620 
-13.867200 -12.350100 -2.658160 
-14.342800 -12.222400 -2.193020 
-13.505200 -12.429000 -2.235850 
-16.881701 -10.802900 -1.293910 
-13.381100 -12.500000 -2.189420 
-13.547600 -12.441100 -1.888620 
-15.555500 -11.557700 -1.255690 
-13.989400 -12.321100 -1.597960 
-16.247200 -11.069100 -0.182519 
-15.372800 -11.561000 -0.454345 
-14.265200 -12.220800 -0.652931 
-15.027700 -9.433960 0.931389 
-14.774400 -9.925120 0.929541 
-14.991800 -9.514410 1.211100 
-14.875600 -9.765750 1.240160 
-14.436800 -11.370000 0.573599 
-13.779300 -12.372500 0.121091 
-14.847500 -11.214000 1.026600 
-13.991400 -12.302600 1.254570 
-16.316999 -11.043200 -3.340400 
-17.190300 -10.441800 -2.940010 
-15.071700 -11.995100 -3.509930 
-15.111100 -11.987400 -3.226400 
-14.976000 -12.019100 -3.217620 
-14.954100 -11.990300 -3.182830 
-13.260600 -12.531200 -3.237110 
-13.194700 -12.562400 -3.225910 
-12.763500 -12.678700 -2.592930 
-16.975100 -10.776100 -1.339120 
-13.282100 -12.538400 -1.908630 
-16.055401 -11.165900 -0.974985 
-16.465500 -11.000100 -0.754177 
-16.551600 -10.967400 -0.545628 
-16.541100 -10.706900 -0.374333 
-16.395500 -10.867100 -0.280415 
-16.260099 -11.061300 -0.161913 
-14.103400 -12.275500 -0.636479 
-16.033001 -10.872800 0.371412 
-14.832800 -11.231700 0.472292 
-13.991300 -12.296500 -0.016535 
-14.898400 -9.713730 1.264210 
-14.132300 -12.257500 0.142371 
-14.055000 -12.298500 0.166694 
-14.177200 -12.248700 0.462605 
-12.790600 -12.510400 1.512110 
-12.813000 -12.500000 1.543190 
-12.694400 -12.524700 1.627360 
-18.534700 -10.890300 -4.632770 
-15.423600 -11.919700 -3.783850 
-17.112400 -10.507200 -2.956120 
-17.333300 -10.385400 -2.898520 
-15.937300 -10.783900 -2.927210 
-15.601400 -10.843200 -2.793120 
-13.102300 -12.592000 -3.231280 
-15.936800 -10.997800 -2.510160 
-13.388400 -12.579300 -2.890450 
-13.134200 -12.548500 -2.879100 
-15.862700 -11.204000 -2.216860 
-13.286000 -12.515300 -2.214490 
-14.357200 -12.194900 -0.974564 
-14.492100 -11.724400 -0.589742 
-14.195700 -12.247400 -0.620158 
-14.120300 -12.257800 0.160921 
-14.182900 -12.258500 0.668238 
-14.970700 -11.088000 1.414740 
-14.211400 -12.264200 0.933954 
-13.248500 -12.536700 0.895638 
-12.579800 -12.566600 1.702150 
-17.781700 -11.222600 -4.077410 
-14.795300 -12.059700 -2.431140 
-16.476299 -11.034000 -0.807826 
-16.494600 -11.025700 -0.725207 
-14.463000 -12.265400 -1.020430 
-15.859700 -10.955400 0.387702 
-12.540300 -12.571800 1.713380 
-14.785800 -12.080900 -3.480170 
-15.622500 -10.954300 -2.862540 
-15.830200 -11.135000 -2.475060 
-15.945600 -11.048900 -2.168990 
-16.582001 -10.913400 -2.041640 
-16.628799 -10.984100 -1.634640 
-13.967400 -12.316800 -2.198990 
-16.502501 -11.009100 -0.756714 
-14.489800 -12.157400 -0.961483 
-15.297600 -11.605400 -0.483115 
-15.229800 -11.633800 -0.461783 
-15.233700 -11.130700 0.398387 
-13.341000 -12.493800 -0.295210 
-13.367300 -12.515400 0.127595 
-12.586700 -12.567000 1.525320 
-16.407499 -11.630500 -4.055400 
-17.054600 -10.811900 -0.918425 
-16.737600 -10.828000 -0.690373 
-14.275000 -12.212500 -0.730306 
-15.523900 -11.991600 -2.843920 
-14.366300 -12.037200 1.392060 
-15.344600 -11.084400 0.457653 
-16.954800 -10.793000 -2.361600 
-17.207199 -10.770700 -1.785410 
-16.578501 -10.903900 -0.460333 
-14.433500 -12.069900 -0.945688 
-15.978100 -11.102600 -3.188460 
-14.970000 -12.026400 -3.525860 
-15.014200 -12.002300 -3.496820 
-14.480300 -12.163000 -3.492520 
-14.255200 -12.239600 -3.530910 
-15.989600 -11.012100 -2.072850 
-14.531400 -12.139400 -2.740770 
-14.065200 -12.298900 -2.532760 
-16.462400 -11.026700 -0.768471 
-12.693300 -13.425600 -3.131880 
-13.206500 -12.557300 -1.946200 
-15.035600 -9.424890 1.071790 
-16.060699 -10.861800 0.373308 
-14.885800 -9.725500 1.294790 
-13.336300 -12.513200 0.885648 
-18.139700 -11.028400 -4.260290 
-17.469601 -11.287600 -4.391540 
-16.223499 -11.630800 -4.048630 
-17.590900 -10.416200 -2.849740 
-15.513300 -11.841800 -3.768830 
-16.908199 -10.710500 -2.267350 
-14.968600 -12.030200 -3.482320 
-15.916800 -11.044000 -2.160930 
-15.834300 -11.159700 -2.228940 
-15.849500 -11.197600 -2.230330 
-16.706499 -10.960000 -1.719240 
-13.513900 -12.452500 -2.851930 
-13.807700 -12.379900 -2.677750 
-14.925500 -9.654580 1.062850 
-14.830100 -11.241600 0.477769 
-14.365300 -11.393200 0.498896 
-13.980600 -12.291600 -0.175662 
-14.182200 -12.248500 0.465797 
-12.817500 -12.490900 1.548460 
-18.189800 -11.001000 -4.317320 
-17.426001 -11.295200 -4.052850 
-16.601900 -11.395200 -4.049250 
-16.282301 -11.603900 -4.010810 
-14.826700 -12.066800 -3.520960 
-16.877399 -10.954700 -1.064890 
-16.611799 -10.990200 -0.926998 
-14.229300 -12.255700 -1.621830 
-14.679500 -11.278600 0.431914 
-14.081900 -12.277200 1.204900 
-12.868600 -12.478200 1.510710 
-12.571900 -12.568700 1.697240 
-14.205100 -12.259100 -2.764710 
-14.455300 -12.122800 -0.939916 
-12.667400 -12.538700 1.558440 
-12.594900 -12.561200 1.513090 
-12.754300 -12.512100 1.669050 
-12.632200 -12.541300 1.571690 
-12.516400 -12.570800 1.653330 
-12.542200 -12.572100 1.709710 
-12.515900 -12.578600 1.733980 
-14.074000 -12.292100 -3.632930 
-14.075000 -12.371800 -2.791040 
-15.589700 -11.482700 -0.250421 
-17.703100 -11.197500 -4.275570 
-17.842400 -10.645400 -1.555100 
-16.604601 -10.906100 -0.906862 
-16.496099 -10.917300 -0.597739 
-16.475901 -11.176200 -0.638132 
-14.861200 -11.804900 -0.551273 
-16.523100 -10.734600 -3.057190 
-15.168800 -11.960200 -2.895630 
-16.842100 -10.944200 -1.074420 
-16.465900 -11.046300 -0.784386 
-14.170900 -12.257300 -2.760410 
-13.990700 -12.318500 -2.520260 
-14.920700 -9.642940 1.066310 
-15.497100 -11.538600 -0.827358 
-15.410800 -11.544000 -0.588583 
-15.743800 -11.474300 -0.139328 
-15.447300 -11.064800 0.490971 
-13.338300 -12.516900 0.884828 
-17.183300 -10.463900 -2.927810 
-16.269501 -11.625000 -4.020260 
-16.991301 -10.861200 -1.872140 
-15.829900 -11.062600 -2.163640 
-14.911900 -12.035400 -3.509730 
-17.105900 -10.849600 -0.872616 
-16.640699 -10.948200 -1.081150 
-17.223700 -10.805600 -0.709184 
-16.613400 -10.931500 -0.967223 
-16.576900 -11.040700 -0.840883 
-16.448400 -10.931500 -0.404571 
-15.951500 -11.202800 -0.917603 
-13.026200 -12.606700 -3.235290 
-15.980100 -11.196600 -0.357089 
-15.646000 -11.493600 -0.774337 
-15.852500 -10.932700 0.390838 
-15.457600 -11.051300 0.473629 
-14.893000 -11.222100 0.364710 
-14.088500 -12.272500 -0.722624 
-13.918000 -12.337800 -0.688119 
-12.823500 -12.493800 1.551720 
-12.587600 -12.560700 1.739500 
-17.642401 -10.657600 -2.075990 
-15.847700 -11.104200 -2.166510 
-16.563700 -11.082400 -1.047200 
-17.750500 -10.840300 -0.360325 
-15.651100 -11.468800 -1.445990 
-16.927000 -10.563000 0.603664 
-15.310000 -11.607800 -0.329931 
-12.840000 -12.486500 1.533330 
-12.755200 -12.515200 1.673710 
-12.721400 -12.513600 1.677180 
-12.546300 -12.570500 1.706920 
-17.075300 -10.499800 -3.009590 
-17.040199 -11.359000 -4.131570 
-16.583500 -10.740900 -3.029740 
-17.887300 -10.477800 -2.199870 
-14.493700 -12.163400 -3.488740 
-16.573900 -11.027400 -1.090560 
-16.632299 -10.990900 -0.964605 
-16.470400 -11.070600 -0.764933 
-15.905400 -11.203900 -1.081600 
-12.605400 -12.563900 1.505760 
-17.188200 -10.417600 -2.978620 
-17.882500 -10.529900 -2.119530 
-18.016701 -10.782200 -0.830927 
-12.599000 -12.549600 1.584220 
-12.506400 -12.572600 1.634630 
-16.633900 -10.921100 -0.999393 
-16.529100 -10.922000 -0.622640 
-16.607000 -10.909000 -0.892921 
-15.466100 -11.547000 -0.376135 
-14.584400 -11.557100 -0.715074 
-19.187099 -10.692700 -4.036960 
-17.820999 -10.577800 -2.113960 
-16.314400 -11.029800 -3.338890 
-16.816700 -10.938000 -2.111340 
-15.204200 -9.301430 1.067340 
-15.045900 -9.417610 1.082720 
-15.042000 -9.420720 1.239080 
-17.235500 -10.815500 -0.182620 
-17.098700 -10.540500 0.388947 
-15.009500 -12.010500 -3.554010 
-14.968200 -12.028000 -3.532330 
-14.963500 -12.043000 -3.514090 
-14.912600 -12.032700 -3.455980 
-15.216500 -11.932100 -2.855150 
-15.952300 -11.212800 -0.182929 
-16.022900 -11.184100 -0.041875 
-15.743900 -11.479700 -0.144272 
-13.943200 -12.338100 -2.508360 
-14.785800 -11.260000 0.440022 
-14.804600 -11.250500 0.489715 
-14.905000 -11.193600 1.164550 
-14.409900 -11.371700 0.545340 
-13.963000 -12.332100 -1.370860 
-12.858000 -12.481100 1.524600 
-17.771900 -10.574500 -2.182230 
-16.459700 -11.409700 -4.159830 
-15.966900 -11.143500 -3.258600 
-15.895100 -11.039000 -2.551180 
-17.108801 -10.848200 -0.626138 
-16.646200 -10.968200 -1.111580 
-15.213000 -11.927600 -2.818750 
-16.429600 -10.745500 0.308291 
-15.997200 -11.197200 -0.624317 
-14.311500 -12.215200 -3.556240 
-16.036800 -11.175500 -0.319773 
-15.992600 -11.199400 -0.106670 
-13.963500 -12.324100 -3.459340 
-15.509100 -11.048700 0.532930 
-15.347100 -11.592400 -0.320566 
-15.286800 -11.620500 -0.413758 
-14.824100 -11.222300 1.223010 
-14.049700 -12.296500 -0.777742 
-13.104600 -12.582000 -0.696168 
-13.086100 -12.583400 -0.283900 
-12.841300 -12.489700 1.534180 
-12.806800 -12.490400 1.501880 
-17.054600 -10.814000 -1.791110 
-16.510500 -11.002700 -1.797820 
-15.815800 -11.026600 -2.203990 
-16.621201 -10.943100 -1.037800 
-16.576401 -11.006500 -0.771640 
-15.322000 -11.396400 -1.926380 
-15.970500 -11.184700 -1.015450 
-16.028000 -11.168900 -0.795014 
-14.498000 -12.157100 -3.479030 
-15.956400 -11.194400 -0.373894 
-13.946800 -12.327800 -2.557910 
-14.976000 -11.714000 -0.182094 
-14.877800 -11.215400 1.067700 
-13.433000 -12.484600 -2.120430 
-13.723500 -12.376500 -1.010050 
-13.589600 -12.423400 -0.191587 
-12.716900 -12.515300 1.677780 
-12.583600 -12.562500 1.745760 
-16.942801 -10.887200 -1.983350 
-16.585800 -11.024200 -1.084070 
-16.625099 -10.961100 -0.944801 
-16.638901 -10.736600 -0.415423 
-16.456100 -11.083600 -0.789701 
-16.277901 -11.079400 -0.236023 
-14.908100 -10.658100 1.281020 
-15.137700 -11.618000 -0.212086 
-14.563200 -11.646100 -0.588337 
-14.842900 -11.207900 1.218590 
-12.861900 -12.474200 1.603490 
-12.756900 -12.512100 1.668990 
-12.819900 -12.489000 1.562810 
-12.628100 -12.541600 1.573180 
-16.799700 -10.858900 -0.896267 
-15.005400 -11.697800 -0.253569 
-16.283701 -10.928600 -2.145790 
-16.490000 -11.050100 -1.258380 
-15.416000 -11.522100 -0.377652 
-14.331200 -12.212300 1.175470 
-17.005400 -10.851400 -2.207330 
-16.432199 -10.908200 -1.758600 
-18.330500 -10.955300 -4.196410 
-16.116800 -10.909000 -2.280850 
-17.124599 -10.830000 -0.568464 
-16.437099 -10.744100 0.306922 
-16.110001 -11.168600 -0.460141 
-16.015100 -11.180900 -0.565462 
-15.092300 -11.977600 -3.577440 
-15.744300 -11.483600 -0.146035 
-14.314200 -12.220300 -3.569080 
-14.903700 -11.193000 1.168180 
-14.408100 -11.373600 0.541724 
-13.711200 -12.394100 -2.451230 
-13.534800 -12.435700 0.572060 
-19.258301 -10.672200 -3.637620 
-16.282101 -11.017300 -3.490620 
-16.727600 -11.353600 -3.968450 
-16.608999 -11.391000 -4.125680 
-17.693800 -10.852400 -0.407409 
-15.984800 -11.163800 -1.073270 
-15.674800 -11.799800 -3.560060 
-15.974600 -11.188800 -0.629710 
-15.940900 -11.209900 -0.409547 
-15.963200 -11.189500 -0.116012 
-15.569100 -11.005800 0.441827 
-14.921000 -12.030200 -3.446120 
-14.343300 -12.211300 -3.586990 
-14.460000 -12.174300 -0.674579 
-14.235900 -12.248700 0.595950 
-13.104200 -12.585900 -0.702149 
-12.873400 -12.477200 1.514300 
-15.080600 -11.656200 -0.324135 
-14.847900 -11.214300 0.965643 
-14.070100 -12.295300 -3.249810 
-13.586600 -12.433800 -0.262838 
-13.102400 -12.586100 -0.181939 
-12.706600 -12.517200 1.676670 
-17.178801 -10.637600 -2.139500 
-18.058201 -10.754200 -1.092990 
-16.090300 -10.928300 -2.245240 
-15.968800 -11.020600 -2.140690 
-14.838300 -12.057100 -3.573260 
-13.378400 -12.498600 -2.196120 
-12.539800 -12.570500 1.709420 
-12.758200 -13.349700 0.337863 
-12.505800 -12.580800 1.725210 
-16.472799 -11.420100 -4.028940 
-16.623400 -10.948500 -1.035200 
-16.586300 -10.996500 -1.138810 
-15.861000 -11.192500 -2.009920 
-18.099199 -10.546700 -1.310350 
-17.039700 -10.824000 -1.981190 
-16.517200 -11.076800 -0.891377 
-16.243700 -11.083300 -1.169830 
-16.366301 -11.121300 -0.942201 
-13.169400 -12.553700 -0.827852 
-12.712600 -12.523000 1.543880 
-12.764400 -12.505600 1.761350 
-12.488100 -13.090300 1.543840 
-16.357300 -11.115600 -0.949686 
-16.426800 -11.142700 -0.679354 
-15.767200 -11.294900 -2.219000 
-12.629100 -12.545300 1.461870 
-16.690500 -11.039700 -1.879500 
-15.878000 -11.410700 -1.222510 
-16.790800 -10.960900 -1.422730 
-14.848500 -11.158500 1.026660 
-17.008900 -10.684600 -2.062920 
-17.298700 -10.778800 -0.439522 
-17.293200 -10.788900 -0.183943 
-17.225700 -10.808500 -0.714410 
-17.118099 -10.832600 -0.569530 
-17.067499 -10.869300 -0.939263 
-16.631701 -10.886100 -0.939642 
-16.168501 -11.133300 -0.192136 
-15.996500 -11.176400 -0.633434 
-16.009199 -11.186800 -0.328303 
-15.962600 -11.196800 -0.172898 
-15.203400 -11.349100 -2.146890 
-14.934700 -12.027200 -3.433430 
-14.205900 -12.249300 -0.417570 
-13.957300 -12.316500 -0.213545 
-13.514300 -12.432200 0.488486 
-12.565400 -12.565400 1.583990 
-16.173401 -11.127700 -0.704268 
-15.998000 -11.179200 -0.906622 
-15.808900 -11.440600 -0.112870 
-16.091400 -11.669700 -3.604010 
-14.895100 -11.218800 0.454401 
-14.959200 -12.024400 -3.423310 
-14.453000 -12.172200 -0.673240 
-14.304500 -12.220100 -1.283320 
-13.554200 -12.433900 0.510062 
-12.852100 -12.509000 1.462570 
-17.303499 -10.743500 -1.443260 
-16.254601 -11.094400 -1.551560 
-15.899800 -11.165400 -3.272010 
-15.956800 -11.194100 -0.380079 
-14.574700 -12.113500 0.014359 
-14.046900 -12.295200 -0.920262 
-15.918600 -11.204700 -0.553197 
-14.533500 -12.149600 -3.349530 
-14.053600 -12.297900 -0.780036 
-13.778300 -12.382400 0.331006 
-12.824200 -12.490600 1.489670 
-18.057600 -10.744600 -0.957542 
-16.184299 -11.096600 -1.008680 
-15.562400 -11.818400 -3.059620 
-12.790100 -12.499800 1.782580 
-17.850300 -10.589200 -1.694340 
-16.791800 -10.865100 -0.922493 
-16.648800 -10.880300 -0.888335 
-15.389100 -11.400500 -1.960020 
-13.162700 -12.559600 -0.816610 
-17.819401 -10.643200 -1.689390 
-16.297001 -11.094000 -1.197500 
-12.518200 -13.122900 1.523950 
-16.613001 -10.918300 -1.327210 
-16.976801 -10.913900 -1.726100 
-14.947900 -11.547600 -1.179960 
-16.626101 -10.971800 -1.173060 
-16.174500 -11.127400 -0.441635 
-15.991700 -11.185100 -0.191234 
-15.979600 -11.200800 -0.172669 
-15.962500 -11.189400 -0.964930 
-14.197300 -12.241500 -0.413211 
-14.029800 -12.311400 0.372055 
-12.696100 -12.525500 1.621300 
-12.954400 -12.619800 0.884069 
-12.570700 -12.563500 1.521840 
-16.575399 -10.907100 -0.876543 
-14.900400 -11.221100 0.534595 
-15.851100 -11.143200 -2.234860 
-14.233600 -12.226800 1.008710 
-13.980400 -12.316600 0.834483 
-13.554300 -12.430400 0.507094 
-12.538500 -13.681900 -0.066988 
-12.586900 -13.679500 -1.045610 
-12.582600 -13.674000 -1.296390 
-16.556801 -11.071200 -0.629684 
-16.210699 -11.122500 -0.541913 
-15.371000 -11.572000 -0.511525 
-14.601700 -11.636200 -0.469263 
-15.563500 -11.836900 -2.927770 
-15.198600 -11.919400 -2.855490 
-14.258800 -12.215300 1.005730 
-14.257800 -12.220000 0.941424 
-14.070900 -12.277900 -0.918202 
-13.118500 -12.571900 -0.268302 
-13.086700 -12.583800 -0.260024 
-16.125500 -10.941000 -2.132030 
-13.964700 -12.304900 0.362713 
-14.305200 -12.219000 -1.075400 
-13.931700 -12.311600 0.335767 
-13.625400 -12.416800 -0.263242 
-16.577700 -10.936500 -0.683908 
-16.518000 -11.100500 -0.897081 
-16.568800 -11.018000 -1.351590 
-17.928699 -10.601700 -1.738990 
-17.026800 -10.709200 -1.708110 
-16.566999 -11.049800 -1.061280 
-15.331200 -11.349000 -1.947740 
-15.500900 -11.842600 -3.011720 
-12.698300 -12.530700 1.626360 
-16.818899 -10.873300 -1.173260 
-16.423300 -11.051800 -0.658546 
-15.287300 -11.384100 -1.688380 
-12.595400 -12.557400 1.607670 
-16.573999 -10.941800 -1.433590 
-12.663100 -12.513900 1.458570 
-14.758000 -9.972500 1.238090 
-17.115499 -10.842000 -0.034289 
-16.495600 -11.106000 -0.455105 
-14.338200 -11.364400 1.233830 
-15.885800 -11.170000 -3.154630 
-16.908701 -11.291300 -4.171670 
-13.952600 -12.317300 -0.188688 
-12.752000 -12.492600 1.552090 
-13.001400 -12.595300 1.293720 
-14.245200 -12.260000 -1.623460 
-14.770800 -12.093000 -2.944420 
-16.151300 -10.941200 -2.176470 
-17.668400 -11.188600 -4.272200 
-14.227300 -12.236700 1.053680 
-14.241800 -12.240400 1.002390 
-14.261100 -12.221900 0.934199 
-14.483200 -11.509800 -0.863666 
-12.875000 -12.482300 1.717180 
-12.716900 -12.504600 1.611070 
-12.695700 -12.524000 1.621180 
-13.028900 -12.588200 1.249380 
-14.044400 -12.292400 -0.842958 
-12.563400 -12.559400 1.523990 
-14.497600 -12.176300 -3.303440 
-14.301800 -12.236200 -3.563640 
-14.935300 -11.208900 0.461068 
-15.375400 -11.558100 -0.547578 
-16.904100 -11.366000 -4.055140 
-13.088700 -12.579400 -0.248004 
-13.159800 -12.565300 -0.891848 
-14.467200 -12.158000 -0.684248 
-13.509400 -12.443100 0.635897 
-14.548800 -12.141300 -3.364330 
-17.043699 -10.689800 -1.653120 
-16.980801 -10.633100 -1.901350 
-17.048599 -10.749700 -1.772770 
-15.603300 -11.504300 -0.303920 
-15.892700 -11.029300 -1.641700 
-15.961800 -11.105400 -3.348690 
-12.856300 -12.480400 1.616830 
-12.811200 -12.495200 1.667500 
-12.777600 -12.503500 1.587840 
-12.620400 -12.550600 1.654490 
-16.686199 -11.005100 -0.658002 
-14.368900 -12.184600 1.117230 
-12.571800 -13.635800 1.283290 
-13.833600 -12.318100 0.259664 
-16.711201 -11.063900 -0.629593 
-14.760400 -9.968630 1.231030 
-16.481501 -11.124800 -0.476610 
-15.778500 -11.445100 -0.927171 
-16.347900 -11.026700 -3.413120 
-14.253400 -12.222600 -0.601404 
-14.050700 -12.295300 -0.811727 
-14.757500 -12.095100 -2.922750 
-12.468000 -13.740700 -0.054849 
-14.345200 -11.387900 0.349351 
-16.078699 -11.119700 -3.229890 
-14.047200 -12.296500 -0.842197 
-14.273600 -12.237200 -2.934870 
-14.038800 -12.305400 -3.235200 
-15.532000 -11.025300 0.532352 
-15.267200 -11.115800 0.416456 
-14.636400 -11.292400 0.414205 
-16.647499 -10.964800 -1.944140 
-13.953800 -12.309600 0.384233 
-12.579000 -12.556200 1.548800 
-12.528100 -12.578300 1.515130 
-13.312800 -12.500700 0.696828 
-15.820700 -11.189300 -3.192970 
-14.922800 -11.231400 0.495185 
-16.560101 -10.944300 -0.768820 
-15.639400 -11.340100 -2.066870 
-15.937500 -11.121200 -3.299430 
-17.055401 -10.689100 -1.651910 
-17.079100 -10.743300 -1.728210 
-16.386200 -11.136800 -0.866394 
-16.574800 -11.035800 -1.089320 
-16.525900 -11.137200 -1.020600 
-17.024599 -10.739900 -1.779770 
-16.425800 -11.047600 -1.811950 
-15.922500 -11.037200 -1.651410 
-12.808600 -12.496200 1.594800 
-12.764800 -12.506200 1.583800 
-12.563700 -13.272200 1.404480 
-12.740200 -13.214700 0.215306 
-15.513800 -11.624400 -2.793230 
-15.446000 -11.415700 -1.672550 
-14.887700 -11.514900 -1.058710 
-14.919900 -9.658330 1.295510 
-14.763200 -9.961550 0.937039 
-16.170099 -10.822400 0.507052 
-14.366600 -11.365100 1.223270 
-16.542700 -10.649400 -0.364187 
-16.400600 -10.776600 -0.255405 
-14.100500 -12.261900 1.242340 
-14.481900 -11.347500 0.375376 
-14.515500 -11.487100 -0.865728 
-13.795700 -12.367100 -0.129023 
-13.892300 -12.345000 -0.367558 
-13.151100 -12.556900 0.124553 
-13.104800 -12.570200 0.157369 
-15.781700 -11.150500 -3.241870 
-13.150000 -12.575700 -0.669133 
-13.977900 -12.318800 -1.892930 
-12.468200 -13.749800 -0.048849 
-16.358900 -10.878500 -0.264492 
-16.261999 -10.978400 -0.237840 
-14.264800 -12.237500 1.174500 
-13.495300 -12.299400 1.502760 
-14.391600 -11.379200 0.306169 
-16.592300 -11.044900 -1.019660 
-13.423800 -12.478600 1.254290 
-14.055900 -12.280900 0.410564 
-13.306600 -12.509500 0.893165 
-13.367900 -12.488100 0.847409 
-12.935800 -12.622400 0.898383 
-14.426800 -12.187000 -0.674735 
-13.992300 -12.301100 -0.368091 
-14.058600 -12.295200 -0.815720 
-15.858800 -11.147100 -3.146640 
-16.035500 -11.036700 -3.462370 
-15.731600 -11.194100 -3.173640 
-14.557600 -12.142100 -3.492760 
-13.681100 -12.396300 0.838462 
-14.504500 -12.134400 -0.969361 
-14.546200 -12.127900 -1.021570 
-15.180300 -11.941600 -2.249500 
-13.783100 -12.380700 -3.544200 
-14.851900 -10.461400 1.200140 
-14.908300 -11.210500 0.529447 
-16.810600 -10.951800 -1.450980 
-13.769000 -12.372600 0.125374 
-14.431500 -11.629400 -0.870631 
-16.795000 -11.383000 -4.017280 
-16.438999 -10.782500 -0.320187 
-16.019100 -11.113900 -0.195615 
-12.576500 -12.556200 1.632380 
-15.137200 -11.448000 -2.181840 
-14.785800 -9.922560 1.209950 
-16.540701 -11.074100 -0.958009 
-17.672199 -10.342900 -2.903000 
-17.791500 -10.542100 -2.720900 
-15.008000 -9.517160 1.031250 
-14.811200 -9.882420 1.213020 
-14.831600 -9.831800 0.929979 
-14.762000 -9.952310 0.932343 
-14.136000 -12.250100 1.212820 
-14.936600 -11.211600 0.510766 
-12.594200 -12.547300 1.518240 
-14.734600 -11.266100 0.369774 
-16.465700 -10.725400 -0.276700 
-16.441401 -10.752200 -0.320726 
-16.394501 -10.787900 -0.292942 
-16.374100 -10.805700 -0.288166 
-13.482900 -12.441200 1.014940 
-14.060900 -12.272800 0.658539 
-14.142200 -12.260100 0.133530 
-15.454300 -11.547400 -0.622412 
-14.077600 -12.276500 0.084624 
-13.803200 -12.368000 -0.131824 
-13.117400 -12.553600 0.165677 
-13.878700 -12.343300 -0.362236 
-14.607900 -12.110100 -1.054570 
-16.092800 -10.938700 -2.205820 
-15.345600 -11.888900 -1.580520 
-12.469900 -13.731800 -0.052864 
-14.159200 -12.256500 -2.238010 
-16.822001 -11.342300 -4.065080 
-16.729200 -11.356800 -4.029390 
-16.819300 -11.338300 -4.105770 
-13.580000 -12.457100 -2.679490 
-13.773700 -12.354100 1.338760 
-14.578000 -11.316300 0.384270 
-16.453699 -10.744800 -0.302807 
-16.394400 -10.780800 -0.282283 
-14.037100 -12.306600 0.927532 
-16.319099 -10.906000 -0.254508 
-13.030500 -12.585200 1.202190 
-14.110800 -12.248800 0.624726 
-14.091500 -12.271700 0.417160 
-14.047700 -12.283900 0.415106 
-12.677300 -12.680800 0.926928 
-13.255400 -12.518300 0.090637 
-14.491300 -11.518500 -0.854620 
-13.742900 -12.384000 -0.380695 
-13.010800 -12.596700 -0.177183 
-14.521500 -12.133300 -0.992546 
-13.155500 -12.572500 -0.315201 
-13.038300 -12.585600 -0.304679 
-13.427300 -12.479400 -0.655178 
-13.154400 -12.574500 -0.669305 
-13.185100 -12.577900 -0.955893 
-15.168000 -11.942400 -2.243880 
-15.253600 -11.933400 -2.307580 
-16.234100 -11.059100 -3.361670 
-15.904600 -11.147300 -3.175240 
-14.552300 -12.141900 -3.486550 
-14.134600 -12.254700 1.238300 
-15.643100 -11.003000 0.347974 
-12.610100 -12.577700 1.479880 
-16.501101 -10.812500 -0.359813 
-13.822900 -12.358600 0.865203 
-13.954000 -12.327300 0.674589 
-13.198500 -12.541500 0.130063 
-13.987800 -12.301500 -0.362108 
-13.480000 -12.455800 -0.276576 
-14.505800 -11.602400 -1.022880 
-15.193400 -11.428600 -1.468660 
-14.550400 -12.131900 -1.025180 
-15.773500 -11.285900 -3.189890 
-13.823700 -12.374600 -3.547490 
-12.821400 -12.497900 1.669190 
-13.523900 -12.435900 1.239190 
-16.525101 -10.660500 -0.366974 
-16.498501 -10.744000 -0.349409 
-13.675700 -12.378700 0.184935 
-13.500700 -12.457800 0.198367 
-14.188000 -12.181500 1.256990 
-15.149300 -11.142100 0.322512 
-16.972500 -10.841000 -1.508160 
-14.509100 -11.684300 -0.905259 
-13.894800 -12.374300 1.221190 
-14.833700 -11.267400 0.381394 
-16.594000 -11.057900 -0.985446 
-16.354799 -11.460000 -4.077570 
-12.490100 -12.715800 1.610870 
-16.407700 -10.902300 -0.346061 
-15.293000 -11.644800 -0.248653 
-15.025700 -9.442720 1.068020 
-15.006400 -9.524510 1.033480 
-15.016800 -9.457150 0.931977 
-12.779400 -12.502500 1.737400 
-14.824500 -9.813880 0.925596 
-12.604300 -12.554200 1.518150 
-13.489300 -12.448800 1.015810 
-14.035200 -12.297600 0.731081 
-14.658600 -11.306800 0.423336 
-14.732800 -11.264200 0.368077 
-14.165600 -12.271200 0.663341 
-14.372900 -11.376100 0.321894 
-14.036100 -12.287600 0.421863 
-12.801800 -12.646700 0.651868 
-16.392900 -10.811100 -0.287183 
-16.335600 -10.857400 -0.275166 
-16.410700 -10.799900 -0.326722 
-13.101000 -12.582600 0.440607 
-14.064400 -12.285700 0.091848 
-14.039300 -12.282500 0.054020 
-15.474200 -11.542600 -0.630985 
-17.820499 -10.662900 -1.653840 
-15.476300 -11.514000 -1.178160 
-15.799100 -11.461100 -1.392290 
-13.418500 -12.491700 -0.649841 
-14.541800 -12.144700 -1.015280 
-13.038800 -12.600700 -0.635180 
-13.199000 -12.560200 -0.976247 
-12.554100 -13.695000 -0.903566 
-15.055800 -11.991000 -2.236770 
-14.323900 -12.253100 -2.219890 
-16.030100 -11.119700 -3.188930 
-15.917600 -11.146000 -3.183730 
-13.254400 -12.544400 -1.943430 
-15.807000 -11.740000 -3.489260 
-17.067699 -11.342200 -4.190000 
-16.844200 -11.311400 -4.103550 
-16.815800 -11.350400 -4.114450 
-16.446501 -11.497600 -4.138940 
-14.775100 -9.944200 1.222650 
-14.819300 -9.899660 1.204030 
-14.851500 -9.775300 1.156330 
-14.946900 -11.082200 1.486120 
-12.697200 -12.524100 1.617230 
-12.755500 -12.503900 1.518780 
-12.508100 -12.593000 1.507570 
-13.668700 -12.400900 1.262810 
-12.878500 -12.629000 1.187020 
-14.056200 -12.265800 0.926236 
-14.287100 -12.203400 0.874457 
-15.726600 -10.951200 0.318067 
-15.057400 -11.175000 0.382455 
-12.710500 -12.690300 0.923146 
-14.105400 -12.256000 0.632967 
-14.581600 -11.322100 0.345488 
-13.630900 -12.406800 0.686962 
-16.479200 -10.724600 -0.280123 
-16.600401 -10.696300 -0.306901 
-16.258499 -10.936800 -0.215553 
-16.309500 -10.876700 -0.250602 
-16.451099 -10.762000 -0.317057 
-13.548300 -12.459200 0.437140 
-16.440001 -10.892100 -0.321839 
-13.386400 -12.492900 0.429938 
-14.624500 -11.620000 -0.061391 
-14.028800 -12.310300 0.121397 
-13.159800 -12.559300 -0.264586 
-13.711900 -12.400000 -0.632633 
-17.040001 -10.775300 -2.008380 
-16.999800 -10.656300 -2.016730 
-14.727200 -12.080800 -1.301300 
-15.862600 -11.109300 -1.858330 
-13.208100 -12.574600 -0.963074 
-13.106300 -12.583800 -0.998227 
-15.858100 -11.199900 -2.318890 
-15.860800 -10.854300 -2.927610 
-15.828600 -11.182800 -3.146780 
-15.241400 -11.896200 -2.870330 
-16.296200 -11.073400 -3.429690 
-16.038799 -11.036400 -3.434110 
-14.004200 -12.316300 -2.515350 
-16.951799 -11.326100 -4.092220 
-16.218800 -11.661900 -3.826310 
-16.650200 -11.364400 -4.192730 
-13.774300 -12.390900 -3.534420 
-12.522500 -12.576700 1.563110 
-12.920400 -12.639900 1.237540 
-13.803800 -12.375700 0.653354 
-14.412600 -12.166600 0.441262 
-16.439501 -10.786000 -0.236857 
-16.258301 -11.003200 -0.224698 
-16.379499 -10.915600 -0.370712 
-16.598700 -11.086600 -0.591249 
-13.993000 -12.300900 0.084932 
-15.549300 -11.543300 -0.800043 
-13.173500 -12.562300 -0.318759 
-14.334700 -12.177500 -0.692071 
-14.532700 -11.492600 -0.899518 
-14.534800 -12.175200 -0.996243 
-14.346600 -12.201400 -1.012400 
-17.011000 -10.787600 -2.021680 
-13.600900 -12.426800 -1.058640 
-15.887600 -11.209200 -1.994160 
-13.165700 -12.563400 -0.993127 
-14.191500 -12.267900 -1.617390 
-15.013600 -11.984400 -2.295630 
-15.681000 -10.983600 -2.846320 
-14.820900 -12.061400 -3.223860 
-14.162400 -12.268700 -3.643280 
-14.923700 -11.048000 1.556670 
-12.719800 -12.525500 1.551380 
-14.335500 -12.190500 1.230900 
-13.095400 -12.565500 1.264870 
-13.854500 -12.338800 0.712769 
-15.689800 -11.261400 0.247314 
-12.714200 -12.688400 0.697223 
-16.222099 -11.039300 -0.160180 
-16.257999 -11.126500 -0.182627 
-16.628300 -11.097300 -0.546798 
-16.878201 -10.941000 -1.295510 
-16.833799 -10.917800 -1.349240 
-16.875999 -10.988700 -1.466830 
-13.202700 -12.523200 -0.349262 
-13.053800 -12.602200 -0.309841 
-14.123800 -12.267400 -0.836301 
-15.768700 -10.944000 -2.903340 
-15.578900 -11.717600 -2.835090 
-15.434200 -11.434300 -2.832940 
-15.825500 -11.205200 -3.181690 
-14.028900 -12.310300 -2.922620 
-14.972200 -12.029000 -3.545690 
-13.465800 -12.409300 1.369820 
-14.514800 -11.352300 0.303782 
-16.510300 -10.791400 -0.358982 
-13.668000 -12.412500 0.410054 
-16.524401 -10.823300 -0.401669 
-14.371800 -12.199400 -0.662848 
-16.860201 -11.000200 -1.518410 
-15.765100 -11.349300 -1.356300 
-15.836200 -11.261000 -3.220690 
-13.199200 -12.563200 0.902760 
-17.476601 -10.660500 -2.634960 
-14.842600 -11.056200 1.518690 
-16.438299 -10.931200 -0.154755 
-16.478300 -10.677000 -0.255470 
-13.843200 -12.347500 0.389170 
-16.605000 -10.919000 -0.785749 
-16.256800 -11.173600 -1.401610 
-16.420799 -10.918200 -1.741550 
-15.519400 -11.914000 -2.810310 
-12.533300 -13.803900 1.680080 
-13.907500 -12.355300 1.147490 
-16.446699 -10.894500 -0.338764 
-16.807699 -10.775800 -0.784789 
-12.724800 -12.524900 1.740970 
-12.771800 -12.502700 1.714820 
-13.367700 -11.666700 1.708980 
-12.862300 -12.475900 1.544630 
-12.921800 -12.464800 1.546290 
-12.813500 -12.518600 1.533470 
-12.800500 -12.517100 1.519520 
-14.935000 -11.047200 1.441000 
-15.026200 -9.451220 1.221350 
-14.774400 -9.942120 1.221500 
-14.795200 -9.919840 1.208720 
-12.918000 -12.623600 1.257230 
-12.859900 -12.672700 1.253430 
-13.819600 -12.339200 1.316610 
-13.553400 -12.437100 1.267510 
-13.542400 -12.430300 1.231060 
-15.028300 -9.437300 1.066870 
-14.760800 -9.951410 1.064260 
-15.020500 -9.448450 0.930340 
-14.773100 -9.940000 0.929481 
-14.752600 -11.225200 0.922317 
-13.276000 -12.537000 0.903015 
-13.547100 -12.434000 0.910172 
-14.229000 -12.209000 0.917920 
-13.260400 -12.517300 0.881435 
-14.294900 -12.188700 0.916286 
-13.658200 -12.394000 0.817292 
-13.705000 -12.382100 0.803497 
-13.358000 -12.493700 0.704346 
-12.838100 -12.647400 0.684842 
-12.970200 -12.612800 0.684876 
-13.040500 -12.593200 0.682891 
-13.231400 -12.536600 0.681792 
-13.281500 -12.504000 0.670264 
-14.314800 -12.212200 0.666693 
-13.172300 -12.548300 0.649719 
-14.177000 -12.243700 0.638601 
-14.861000 -11.220200 0.575969 
-13.216200 -12.551500 0.457907 
-14.222200 -12.238100 0.444459 
-13.079400 -12.582500 0.444317 
-13.154400 -12.569200 0.444906 
-13.966200 -12.326700 0.431867 
-13.020100 -12.597900 0.440557 
-14.750300 -11.261500 0.365859 
-14.394600 -11.378700 0.335731 
-14.478400 -11.353000 0.330114 
-14.380200 -11.377000 0.321615 
-14.391300 -12.185200 0.241125 
-14.088500 -12.273800 0.238740 
-13.921400 -12.330000 0.190971 
-16.670900 -10.800300 -0.183069 
-16.727501 -10.763000 -0.200506 
-16.231300 -11.056700 -0.176192 
-16.253799 -10.983800 -0.179507 
-14.722600 -11.594200 -0.114481 
-14.701300 -11.600600 -0.129467 
-14.350600 -12.206400 -0.131628 
-16.520100 -10.721600 -0.286597 
-16.372801 -10.823300 -0.282319 
-16.487400 -10.798000 -0.384788 
-16.530300 -10.734600 -0.392513 
-13.098700 -12.571300 -0.180873 
-15.554300 -11.468700 -0.444512 
-13.678500 -12.421800 -0.375448 
-12.967500 -12.613000 -0.345926 
-13.147900 -12.556400 -0.362546 
-15.402100 -11.546600 -0.575388 
-15.513800 -11.552400 -0.636072 
-14.072900 -12.283100 -0.659283 
-15.521400 -11.534100 -0.841947 
-13.782900 -12.393500 -0.662613 
-13.836100 -12.375000 -0.673334 
-14.164000 -12.252300 -0.851413 
-14.045400 -12.298400 -0.839359 
-14.558800 -11.441400 -0.887574 
-14.378700 -12.181500 -1.032030 
-15.488300 -11.511900 -1.181930 
-15.494200 -11.553500 -1.249940 
-15.063300 -11.972300 -1.268650 
-15.076800 -11.979400 -1.288400 
-15.775500 -11.460000 -1.388560 
-15.087000 -11.968200 -1.306480 
-13.011700 -12.602400 -0.986454 
-13.048300 -12.594200 -1.000020 
-13.243600 -12.548400 -1.308100 
-16.040199 -10.984300 -2.101510 
-14.511800 -12.161200 -1.881830 
-16.106199 -10.927800 -2.177530 
-14.344400 -12.209100 -1.865590 
-15.150900 -11.679300 -2.195270 
-15.143700 -11.967900 -2.225490 
-15.896700 -11.069800 -2.405850 
-13.250300 -12.551000 -1.941800 
-13.469600 -12.462200 -2.190760 
-15.764800 -11.742600 -3.214860 
-13.636300 -12.427700 -2.683790 
-19.648001 -10.539400 -4.590850 
-15.778100 -11.781700 -3.535620 
-17.688000 -11.124500 -4.224140 
-16.831200 -11.330500 -4.098840 
-16.798000 -11.338400 -4.107420 
-13.365000 -12.499900 -2.954570 
-16.705400 -11.363700 -4.127160 
-14.626300 -12.123100 -3.485380 
-15.879500 -11.766200 -3.999310 
-15.798100 -11.753200 -3.987730 
-13.538100 -12.465300 -3.230140 
-12.877600 -12.476100 1.562770 
-12.561400 -12.568000 1.502480 
-14.686600 -9.938400 1.494390 
-13.168100 -12.558400 1.288800 
-12.891700 -12.641900 1.246730 
-13.192100 -12.546000 1.259130 
-13.153900 -12.548000 1.215080 
-14.043500 -12.274800 1.186260 
-15.003500 -9.527970 1.033650 
-14.827500 -9.866310 1.034370 
-12.714600 -12.692500 0.909414 
-14.648900 -11.267200 0.922494 
-13.205000 -12.550800 0.906377 
-13.949800 -12.319400 0.932890 
-13.843900 -12.360700 0.924855 
-14.106700 -12.276900 0.922456 
-13.989500 -12.327700 0.912754 
-12.804300 -12.662700 0.693023 
-13.696600 -12.412100 0.693718 
-14.291300 -11.433300 0.645684 
-12.982400 -12.618100 0.672357 
-13.216100 -12.529600 0.667689 
-13.355200 -12.488800 0.669437 
-13.140900 -12.553600 0.663801 
-13.375900 -12.498100 0.656815 
-14.405700 -11.357900 0.572901 
-12.797300 -12.669900 0.458804 
-14.153400 -12.260200 0.434576 
-13.289400 -12.528500 0.442262 
-14.200300 -12.231100 0.422439 
-14.065500 -12.276800 0.423280 
-14.440600 -12.161500 0.416120 
-13.262900 -12.526200 0.427028 
-13.071900 -12.580900 0.426595 
-14.363100 -12.199700 0.412107 
-15.082300 -11.160200 0.365111 
-16.218500 -10.824300 0.333646 
-16.036600 -11.000500 0.262928 
-15.617700 -11.337900 0.263350 
-14.220300 -12.223400 0.251862 
-14.463000 -12.159100 0.245634 
-14.235500 -12.243000 0.236532 
-14.026700 -12.304600 0.241448 
-15.683700 -11.393000 0.135132 
-13.793500 -12.310000 0.167218 
-13.117000 -12.563200 0.132820 
-13.426600 -12.473400 0.112479 
-13.244000 -12.529400 0.116358 
-13.629000 -12.396300 0.082471 
-13.899300 -12.319700 -0.001276 
-16.176701 -11.111200 -0.129392 
-14.690800 -11.590600 -0.087470 
-14.237600 -12.232700 -0.112914 
-16.370001 -10.888700 -0.260420 
-16.350800 -10.903200 -0.277098 
-13.772800 -12.370600 -0.116296 
-16.607201 -10.736300 -0.383919 
-13.649600 -12.404200 -0.266183 
-14.301100 -12.188900 -0.327299 
-15.233200 -11.634200 -0.407074 
-16.540100 -10.935100 -0.525261 
-15.287500 -11.609300 -0.434778 
-13.162700 -12.558200 -0.267449 
-14.194300 -12.257600 -0.362135 
-13.659400 -12.415600 -0.335846 
-13.766100 -12.387100 -0.385694 
-13.391100 -12.479600 -0.402599 
-16.553699 -10.987900 -0.793912 
-14.136000 -12.286000 -0.635915 
-15.399400 -11.566600 -0.797813 
-14.562800 -11.575300 -0.949584 
-14.146200 -12.266700 -0.972852 
-17.845800 -10.644200 -1.512850 
-13.929900 -12.344200 -1.010250 
-13.518800 -12.468400 -1.025220 
-13.187500 -12.562200 -0.975919 
-14.636400 -12.084700 -1.273300 
-14.728300 -12.077500 -1.301890 
-14.644800 -12.102300 -1.308150 
-14.374700 -12.163000 -1.273240 
-14.074700 -12.294600 -1.313650 
-13.997100 -12.332000 -1.313310 
-13.812200 -12.378500 -1.300480 
-17.126301 -10.689400 -2.127630 
-15.865500 -11.080400 -2.012850 
-15.867000 -11.114300 -2.067960 
-15.944000 -10.981600 -2.148420 
-13.436400 -12.484800 -1.909610 
-13.365900 -12.507900 -1.907040 
-15.499500 -11.851400 -2.888590 
-13.734100 -12.434000 -2.432680 
-14.118700 -12.280000 -2.558480 
-15.819700 -11.183700 -3.144010 
-13.574900 -12.445400 -2.677690 
-17.839899 -11.157300 -4.343110 
-16.639799 -11.343100 -4.025030 
-16.842899 -11.300800 -4.142790 
-16.713499 -11.356600 -4.106130 
-16.571100 -11.328100 -4.126010 
-16.589001 -11.419000 -4.173940 
-12.464700 -12.576100 1.749310 
-12.684600 -12.523200 1.701340 
-12.824300 -12.502500 1.569230 
-12.673600 -12.536500 1.521080 
-12.639600 -13.162200 1.365670 
-14.759500 -11.197500 1.411560 
-13.128600 -12.590200 1.278130 
-13.005300 -12.557100 1.242350 
-13.420800 -12.478100 1.268240 
-13.969300 -12.308500 1.240660 
-14.166600 -12.257500 1.166630 
-14.043100 -12.267100 1.072800 
-14.811700 -9.869940 0.929870 
-14.850000 -9.780400 0.923241 
-13.548400 -12.420600 0.709321 
-13.893500 -12.320600 0.694045 
-14.086900 -12.293700 0.660777 
-14.264500 -12.222300 0.463646 
-14.436800 -12.169600 0.440384 
-14.296200 -12.199700 0.429193 
-16.356899 -10.763700 0.346728 
-14.849300 -11.232400 0.354880 
-14.960400 -11.209600 0.337367 
-13.672600 -12.390700 0.192918 
-13.750800 -12.364500 0.160085 
-13.919100 -12.313200 0.155712 
-13.786300 -12.375700 0.126057 
-14.441900 -12.169500 0.089627 
-14.780000 -11.611700 -0.008717 
-13.953300 -12.313300 -0.027857 
-16.436399 -10.766100 -0.237977 
-16.457001 -10.779500 -0.290666 
-16.529100 -10.720000 -0.315288 
-13.785300 -12.359200 -0.131738 
-16.417500 -10.920900 -0.349144 
-12.791700 -12.720900 -0.110484 
-13.561000 -12.442600 -0.260141 
-12.664600 -12.832300 -0.215845 
-13.208700 -12.544600 -0.347157 
-13.393400 -12.476400 -0.366971 
-16.107800 -11.196000 -0.771310 
-14.212200 -12.247200 -0.626826 
-14.217000 -12.208100 -0.645757 
-13.683100 -12.432000 -0.662917 
-13.140200 -12.568200 -0.660029 
-13.357600 -12.492100 -0.693697 
-14.475900 -11.567600 -0.882518 
-14.032000 -12.328500 -1.025220 
-13.795000 -12.358200 -0.993774 
-15.739600 -11.203800 -1.318340 
-15.759200 -11.102300 -1.327830 
-13.667000 -12.377100 -1.260630 
-16.988300 -10.722700 -2.000470 
-16.977800 -10.755400 -2.013260 
-14.181000 -12.272400 -1.610500 
-15.966500 -10.995600 -1.962090 
-15.994100 -11.026500 -2.005240 
-15.329600 -11.378200 -1.920710 
-15.975500 -11.059700 -2.043810 
-14.145800 -12.258600 -1.850910 
-15.856400 -10.996500 -2.412590 
-15.929000 -11.012800 -2.459080 
-15.846600 -11.071100 -2.495270 
-14.218500 -12.245900 -2.289870 
-13.983100 -12.315100 -2.244540 
-15.865100 -10.857300 -2.928390 
-16.018000 -11.659300 -3.515440 
-16.714600 -11.317700 -4.020830 
-16.065701 -11.670500 -4.024320 
-14.244400 -12.269300 -3.555690 
-13.682400 -12.402700 -3.475920 
-14.905400 -9.539940 1.501560 
-15.067100 -9.353050 1.395150 
-13.851700 -12.309000 1.215400 
-12.780500 -12.726800 0.945483 
-13.621200 -12.406000 0.942439 
-14.892400 -11.047400 0.724633 
-14.896400 -11.029900 0.675108 
-13.588800 -12.441300 0.684600 
-15.864300 -10.912000 0.338687 
-15.316100 -11.127600 0.341069 
-13.849000 -12.341400 0.354060 
-13.604300 -12.414500 0.158158 
-13.965100 -12.299100 0.142236 
-13.649900 -12.410900 0.135242 
-13.366400 -12.500900 0.131933 
-13.681300 -12.363000 0.104503 
-12.742200 -12.698600 -0.030125 
-16.401699 -10.795200 -0.314791 
-12.860900 -12.641100 -0.100918 
-16.600599 -10.979200 -1.120570 
-17.741600 -10.830100 -1.274510 
-14.454000 -12.153600 -0.981161 
-16.851299 -10.881400 -1.290490 
-14.053900 -12.317200 -0.973505 
-14.385300 -12.246600 -1.020690 
-16.971399 -10.984900 -1.380150 
-14.279700 -12.253300 -1.023350 
-16.803200 -10.963100 -1.383590 
-13.936900 -12.330900 -1.043630 
-15.768500 -11.371100 -1.325550 
-17.027100 -10.798600 -2.115370 
-15.954600 -11.024200 -2.068870 
-15.265200 -11.481200 -2.283430 
-15.820500 -11.138200 -2.426900 
-15.959100 -11.726700 -3.534510 
-14.934300 -12.026300 -3.518330 
-14.598700 -12.130400 -3.503070 
-12.740900 -12.689800 1.361070 
-13.848500 -12.357200 1.257090 
-14.355700 -12.212600 1.184460 
-13.481500 -12.478000 0.907705 
-14.202100 -12.211700 0.926837 
-14.947700 -10.897900 0.797644 
-14.705300 -11.253600 0.801323 
-14.901200 -11.093600 0.799645 
-14.163800 -11.401800 0.749146 
-14.177300 -11.336000 0.723137 
-14.376900 -12.021200 0.757383 
-16.157700 -10.760300 0.652547 
-15.774200 -10.960800 0.370029 
-13.869200 -12.347500 0.382936 
-15.703600 -11.255400 0.199143 
-16.475100 -10.894000 -0.193636 
-16.550200 -10.799500 -0.364498 
-16.518801 -10.808000 -0.397164 
-15.179800 -11.643000 -0.464048 
-14.347700 -12.169700 -0.654181 
-16.617001 -10.994400 -1.035050 
-13.066900 -12.604200 -0.668413 
-17.138000 -10.879100 -1.410600 
-15.886300 -11.377300 -1.310610 
-16.823799 -10.985000 -1.466370 
-13.597500 -12.464000 -1.013380 
-15.860000 -11.394300 -1.380730 
-14.841800 -12.058200 -1.273180 
-15.981900 -11.072200 -2.121430 
-15.835900 -11.104700 -2.462540 
-15.711000 -11.223600 -2.463750 
-15.609100 -11.139400 -2.917970 
-16.610001 -10.816800 -3.378860 
-14.636600 -11.271800 0.886695 
-14.396300 -11.409600 0.848670 
-14.871200 -11.067800 0.756434 
-15.134500 -11.163500 0.374627 
-13.671200 -12.420200 0.414441 
-14.163900 -12.261800 0.370443 
-15.582300 -11.221300 0.245097 
-14.641300 -11.787700 0.077060 
-13.726000 -12.370700 0.080535 
-13.820800 -12.363300 -0.368740 
-13.505100 -12.431700 -0.352056 
-16.205799 -11.121000 -0.721244 
-14.379400 -12.202300 -0.614693 
-14.321200 -12.181400 -0.708190 
-16.624901 -10.992700 -1.209750 
-17.015600 -10.891600 -1.264140 
-17.807800 -10.718900 -1.513820 
-13.174600 -12.569100 -0.992807 
-15.958800 -11.172200 -1.411080 
-13.855700 -12.345500 -2.241340 
-15.404600 -11.812200 -2.884440 
-15.001500 -9.477900 1.491450 
-13.996400 -12.293400 0.946426 
-14.874400 -11.145100 0.893294 
-15.015100 -10.875200 0.851288 
-15.932800 -10.598500 0.680320 
-13.999000 -12.187400 0.404050 
-13.881600 -12.359200 0.172566 
-17.103600 -10.837800 -0.179921 
-16.210100 -11.059400 -0.173606 
-16.386200 -11.024100 -0.624603 
-14.301900 -12.189800 -0.719427 
-15.922900 -11.290200 -1.270670 
-14.053700 -12.301400 -2.247600 
-15.594500 -10.959200 -2.949690 
-16.258101 -11.134600 -3.481630 
-12.599700 -12.972700 1.378630 
-16.577400 -10.968600 -0.137609 
-12.878900 -12.942300 -0.330848 
-13.997700 -12.297300 -1.014540 
-12.440200 -12.641300 1.492600 
-12.846700 -12.686300 0.114631 
-16.358101 -10.694800 -3.093990 
-17.021999 -10.757400 -0.561104 
-15.199400 -11.845900 -2.816440 
-15.919400 -11.563500 -1.923740 
-12.847300 -12.657300 -3.307760 
-12.921100 -12.636900 -3.260540 
-15.077800 -11.988400 -3.780140 
-14.573800 -12.126800 -3.633830 
-14.808100 -12.065000 -3.647800 
-14.361000 -12.206000 -3.515950 
-13.463200 -12.477300 -3.222490 
-13.188900 -12.544900 -3.096420 
-15.624400 -11.829100 -3.760480 
-13.167900 -12.555800 -3.087100 
-15.160800 -11.954300 -3.522300 
-14.571200 -12.138900 -3.337750 
-15.334300 -11.905600 -3.533320 
-18.060301 -11.062700 -4.213110 
-14.136700 -12.271100 -3.198360 
-19.087099 -10.746600 -4.453360 
-14.204800 -12.258000 -3.177820 
-16.084200 -11.663900 -3.612680 
-18.423901 -10.951300 -4.201140 
-19.148600 -10.737200 -4.382910 
-16.079000 -11.672000 -3.601530 
-12.856200 -12.657900 -2.755340 
-15.918700 -11.725100 -3.516140 
-14.204000 -12.245400 -3.079280 
-18.169500 -11.017300 -4.059110 
-14.416800 -12.175400 -3.122030 
-14.896200 -12.039300 -3.220300 
-15.801900 -11.125700 -3.258390 
-19.352800 -10.646400 -4.228190 
-19.410500 -10.648700 -4.203880 
-19.441299 -10.636900 -4.204360 
-13.575400 -12.450200 -2.767550 
-15.067700 -11.973200 -3.110850 
-15.061500 -11.977000 -3.097800 
-15.630000 -11.818100 -3.210800 
-15.651400 -11.807800 -3.211090 
-18.252800 -11.007900 -3.805720 
-15.860400 -11.741100 -3.247270 
-15.874700 -11.732100 -3.243780 
-13.563900 -12.455900 -2.710870 
-13.944400 -12.344400 -2.785100 
-15.240700 -11.917900 -3.041900 
-12.827100 -12.655800 -2.452460 
-14.972100 -12.015800 -2.911080 
-14.893800 -12.042800 -2.884530 
-13.804400 -12.365200 -2.590300 
-14.671600 -12.102400 -2.735740 
-15.434100 -11.859300 -2.845670 
-15.507800 -11.841200 -2.856040 
-13.688400 -12.394700 -2.443280 
-15.454300 -11.854800 -2.804160 
-12.875100 -12.642400 -2.268520 
-14.425000 -12.179000 -2.567090 
-14.016800 -12.306300 -2.448320 
-15.362800 -11.891700 -2.715250 
-12.688800 -12.706000 -2.169790 
-14.951700 -12.021700 -2.556270 
-15.037200 -12.001700 -2.542750 
-12.748100 -12.685800 -2.059790 
-13.693300 -12.411100 -2.209030 
-14.041300 -12.310000 -2.241100 
-14.129100 -12.269200 -2.215640 
-14.201700 -12.266100 -2.226490 
-12.713700 -12.695900 -1.945260 
-13.605400 -12.422900 -2.070150 
-13.099300 -12.587700 -1.962850 
-13.228900 -12.539300 -1.977000 
-14.387600 -12.182000 -2.170410 
-18.705500 -10.863600 -2.891420 
-13.037100 -12.603500 -1.877700 
-18.792700 -10.838300 -2.864990 
-15.935200 -10.967500 -2.231110 
-15.161400 -11.939200 -2.134470 
-12.862200 -12.644800 -1.745430 
-13.780500 -12.396800 -1.881380 
-14.962400 -12.010400 -2.062480 
-13.001400 -12.606700 -1.701990 
-17.026400 -10.641600 -2.210900 
-15.000500 -11.993700 -1.995730 
-18.462999 -10.939000 -2.531090 
-14.604900 -12.133500 -1.930510 
-17.216299 -10.589300 -2.224530 
-17.103399 -10.607600 -2.196060 
-14.246700 -12.251800 -1.839890 
-13.327500 -12.508600 -1.697480 
-13.123700 -12.571700 -1.647600 
-12.573100 -13.665900 -1.694160 
-15.043100 -11.979000 -1.884490 
-13.364600 -12.498800 -1.564230 
-14.233500 -12.258600 -1.649630 
-12.747500 -12.684000 -1.340460 
-17.822500 -10.621700 -1.926890 
-12.757100 -12.682900 -1.332390 
-13.224800 -12.538700 -1.315860 
-16.445299 -11.042500 -1.643190 
-16.327000 -11.077600 -1.603140 
-15.709300 -11.434700 -1.481250 
-13.738800 -12.397100 -1.273970 
-13.305200 -12.508800 -1.201060 
-13.726400 -12.398000 -1.246870 
-13.048000 -12.588100 -1.170900 
-12.693300 -12.698500 -1.111250 
-17.727900 -10.816000 -1.595230 
-13.564100 -12.440600 -1.174610 
-13.942200 -12.316000 -1.206100 
-14.963000 -12.015300 -1.302360 
-12.824000 -12.653100 -1.056550 
-17.866301 -10.615900 -1.509910 
-16.661900 -10.960700 -1.281900 
-16.794300 -10.983100 -1.240610 
-17.997700 -10.723100 -1.303320 
-14.043300 -12.290000 -0.945844 
-13.861400 -12.351000 -0.918493 
-16.789700 -10.958200 -1.101720 
-16.799999 -10.974000 -1.089840 
-13.018100 -12.594000 -0.812911 
-12.694700 -12.698000 -0.765383 
-18.094900 -10.703900 -1.150350 
-16.824600 -10.922100 -1.021560 
-14.057300 -12.290200 -0.811891 
-15.511800 -11.531200 -0.897513 
-14.188400 -12.243700 -0.812930 
-13.253300 -12.527700 -0.679525 
-17.746300 -10.840100 -0.970923 
-14.284200 -12.211200 -0.750960 
-13.301600 -12.505100 -0.679925 
-16.467501 -11.073000 -0.862851 
-13.962400 -12.317700 -0.701411 
-13.822900 -12.375000 -0.672270 
-14.444600 -12.173700 -0.698582 
-15.943600 -11.197300 -0.740587 
-13.530300 -12.448800 -0.610631 
-13.521000 -12.453700 -0.602566 
-13.502900 -12.453000 -0.588880 
-17.174299 -10.821800 -0.748978 
