-11.500200 -14.576200 -2.926580 
-11.454000 -14.571500 -2.908880 
-11.586100 -14.563000 -2.992010 
-12.137900 -14.510700 -3.228730 
-11.113300 -14.602900 -3.066230 
-11.750300 -14.553800 -3.519580 
-13.138400 -11.808800 1.477590 
-12.639500 -13.536300 1.602980 
-10.496900 -14.522200 1.544930 
-11.165600 -14.448400 1.525290 
-11.209100 -14.451600 1.489710 
-12.518600 -13.632900 1.293280 
-12.476400 -13.642700 1.290930 
-13.745800 -11.747700 1.076310 
-13.171900 -11.897100 1.055110 
-11.619800 -14.538900 1.309190 
-12.682500 -13.615000 1.208670 
-11.510900 -14.560700 1.240300 
-10.628900 -14.662900 1.138730 
-11.654000 -14.532900 1.150580 
-11.162200 -14.591900 1.023790 
-12.645900 -13.619200 0.910000 
-11.539200 -14.563000 0.672681 
-12.634800 -13.646700 0.578176 
-10.730400 -14.643000 0.609256 
-12.702600 -13.641600 0.497187 
-13.082400 -13.597100 0.407605 
-13.121800 -13.588900 0.374208 
-13.815300 -13.494700 0.352168 
-11.829600 -14.521400 0.454459 
-12.409900 -13.674300 0.353923 
-10.688600 -14.655100 0.403536 
-11.372600 -14.570300 0.377134 
-11.748900 -14.541600 0.240195 
-11.738000 -14.525400 0.185064 
-12.495900 -13.966600 0.072068 
-12.039100 -14.490600 0.083826 
-10.948800 -14.629900 0.076805 
-14.940100 -13.648300 -0.165362 
-11.683000 -14.535700 0.009068 
-11.746900 -14.533300 -0.008936 
-14.258600 -13.492000 -0.279633 
-11.779600 -14.544400 -0.121213 
-11.628200 -14.561800 -0.151472 
-14.361500 -13.472500 -0.391066 
-11.210600 -14.592000 -0.186861 
-13.138000 -14.054800 -0.450545 
-13.200000 -14.019200 -0.572249 
-14.940300 -13.636600 -0.992333 
-11.487100 -14.594500 -0.675161 
-11.753100 -14.529300 -0.730216 
-14.910800 -13.631700 -1.052640 
-11.094400 -14.621200 -0.676551 
-12.345000 -13.821800 -0.813089 
-12.394400 -13.823100 -0.816420 
-13.776400 -13.780700 -0.990643 
-10.949400 -14.632200 -0.731458 
-11.768500 -14.491500 -0.854329 
-14.661800 -13.693500 -1.254530 
-13.570100 -13.724900 -1.264510 
-15.693600 -13.597100 -1.646670 
-11.302500 -14.588000 -1.238420 
-11.432700 -14.574000 -1.279560 
-12.269800 -14.479300 -1.550510 
-16.631100 -13.866600 -2.377130 
-15.024400 -13.463900 -2.083630 
-14.918600 -13.494600 -2.081940 
-11.463200 -14.579200 -1.605450 
-15.056300 -13.420300 -2.188940 
-12.412400 -14.457300 -1.859950 
-13.920500 -13.621800 -2.028430 
-12.199900 -14.475500 -2.030640 
-15.469600 -13.372000 -2.788540 
-10.985200 -14.633900 -2.075990 
-12.373500 -14.464600 -2.453220 
-13.259400 -14.345600 -2.664510 
-13.216100 -14.348300 -2.708540 
-11.754800 -14.532300 -2.484080 
-11.265500 -14.619800 -2.514440 
-13.267600 -13.614200 -2.912680 
-12.598100 -14.465300 -3.208960 
-12.872800 -14.406200 -3.285640 
-12.148400 -14.488800 -3.313930 
-11.706800 -14.564600 -3.211660 
-11.198100 -14.622900 -3.220960 
-12.252100 -13.581100 1.618750 
-13.034500 -12.083300 1.268060 
-11.629300 -14.513400 1.204540 
-11.745000 -14.535000 1.209670 
-12.276400 -13.688100 1.035830 
-11.844700 -14.505900 1.050980 
-10.829000 -14.658600 0.907122 
-11.957600 -14.506800 0.898784 
-11.548900 -14.544900 0.711438 
-14.540100 -13.404900 0.558651 
-11.080900 -14.597500 0.519804 
-11.854100 -14.518600 0.474751 
-14.303900 -13.432800 0.335510 
-10.902300 -14.633000 0.459395 
-11.845000 -14.524300 0.402378 
-11.927700 -14.496600 0.372414 
-11.546100 -14.558700 0.381207 
-11.669600 -14.560800 0.122784 
-11.730100 -14.540200 0.109854 
-14.874900 -13.626700 -0.136309 
-12.536000 -14.006300 -0.004357 
-14.316500 -13.457900 -0.276399 
-12.177800 -14.497500 -0.317886 
-10.708200 -14.657500 -0.252441 
-10.762700 -14.667000 -0.265280 
-13.140500 -14.054400 -0.554190 
-15.668200 -13.738600 -1.038300 
-11.506400 -14.588700 -0.657202 
-13.105000 -14.075100 -0.815519 
-15.666100 -13.706800 -1.202980 
-14.644800 -13.734500 -1.233770 
-12.288900 -13.870500 -0.963721 
-14.365300 -13.696300 -1.355670 
-11.498400 -14.563100 -1.031350 
-13.659100 -13.635700 -1.292820 
-14.592000 -13.720400 -1.693360 
-11.439300 -14.589600 -1.301040 
-16.310101 -14.000200 -3.509760 
-11.490900 -14.568100 -2.638110 
-14.386100 -13.379400 -3.200320 
-11.915500 -14.540500 -2.909110 
-13.417700 -14.322500 -3.318900 
-10.148800 -14.560000 1.673870 
-10.942100 -14.608000 1.345620 
-11.223300 -14.581700 1.345450 
-11.221900 -14.560500 1.186440 
-12.684100 -13.603200 1.110050 
-11.700100 -14.524900 1.116390 
-13.705400 -13.527900 0.391710 
-11.417500 -14.559700 0.078062 
-15.651000 -13.714400 -0.593590 
-13.861500 -13.775200 -0.505150 
-14.681400 -13.691200 -1.667260 
-14.237500 -13.731400 -1.614470 
-14.245600 -13.724800 -1.836560 
-11.015700 -14.631600 -1.572020 
-13.928100 -13.595100 -2.141490 
-15.174400 -13.471500 -2.520350 
-14.304400 -13.546200 -2.516480 
-12.599100 -14.451600 -2.450820 
-15.010300 -13.291200 -2.789040 
-11.280900 -14.602500 -2.187920 
-16.341000 -13.938700 -3.518520 
-13.526100 -14.308700 -3.281460 
-13.758800 -13.702400 -3.229430 
-11.022100 -14.472600 1.498620 
-11.767500 -14.536700 0.623717 
-10.846900 -14.653600 0.409954 
-12.552200 -13.923500 0.041003 
-14.808500 -13.742700 -1.383670 
-13.977000 -13.786500 -1.408220 
-13.287600 -14.045400 -1.347270 
-12.381900 -14.479800 -1.270850 
-12.319200 -14.467300 -1.534830 
-13.563400 -11.756700 1.149210 
-14.266600 -13.542300 -0.188598 
-13.283900 -14.049600 -0.357265 
-10.590000 -14.674800 -0.168853 
-14.898900 -13.662900 -0.562323 
-13.985100 -13.835700 -0.785144 
-12.012200 -14.488700 -0.610086 
-11.809400 -14.533900 -0.956474 
-14.437700 -13.831100 -1.437450 
-13.385700 -14.046800 -1.460510 
-11.289000 -14.617500 -1.316390 
-14.541100 -13.656900 -2.021770 
-13.097500 -13.878600 -2.033530 
-12.883000 -14.394500 -2.905340 
-13.863000 -13.637300 -1.640520 
-11.926300 -14.526500 -2.232710 
-13.355000 -11.774900 0.889704 
-13.886600 -13.748900 -1.249260 
-13.329700 -11.738200 1.510300 
-13.829100 -13.602000 -2.279870 
-13.421200 -11.739800 1.372650 
-14.092600 -13.809700 -0.471862 
-13.410000 -11.728700 0.809522 
-11.443600 -14.586100 -3.210220 
-12.524600 -14.442700 -3.199520 
-14.311400 -13.560100 -2.559560 
-12.069200 -14.498700 -2.209210 
-16.286200 -13.990900 -2.903360 
-16.337700 -13.961000 -2.892850 
-13.814500 -13.555700 -2.241740 
-11.617600 -14.536000 -1.886870 
-11.556300 -14.559200 -1.455640 
-14.259600 -13.739900 -1.662160 
-12.185200 -14.491900 -1.304400 
-11.233600 -14.599200 -1.181850 
-12.014100 -14.495000 -1.256020 
-11.726200 -14.529000 -0.847284 
-11.653500 -14.550000 -0.809147 
-11.741800 -14.530000 -0.807515 
-15.675700 -13.683700 -1.099500 
-10.950100 -14.638400 -0.649737 
-11.091200 -14.611000 -0.603855 
-13.594700 -14.020700 -0.634138 
-10.449900 -14.687900 -0.395965 
-11.497800 -14.572900 -0.370890 
-11.627900 -14.556700 -0.354161 
-11.676800 -14.550600 -0.350708 
-14.330400 -13.457500 -0.247130 
-12.081500 -14.510000 -0.117902 
-11.501600 -14.555600 -0.072187 
-12.825900 -14.125400 -0.090378 
-11.254800 -14.585900 0.029864 
-10.738300 -14.643200 0.086886 
-10.726900 -14.638300 0.144370 
-14.336500 -13.435200 0.375548 
-11.773700 -14.538800 0.425562 
-11.617100 -14.570800 0.431368 
-11.111300 -14.624700 0.433937 
-13.724000 -13.520000 0.409269 
-11.974800 -14.494500 0.523339 
-12.786800 -13.628600 0.495389 
-12.244400 -13.702100 0.577129 
-10.813900 -14.634100 0.624230 
-11.833000 -14.529200 0.661901 
-10.423600 -14.680400 0.659615 
-11.899600 -14.511200 0.686681 
-10.902600 -14.634800 0.702156 
-11.751800 -14.538700 0.915237 
-10.458900 -14.685400 0.921130 
-11.712500 -14.538100 1.281850 
-11.199400 -14.601100 1.255650 
-11.230300 -14.595200 1.269290 
-11.549400 -14.545300 1.313720 
-11.577200 -14.522500 1.328200 
-10.623700 -14.663200 1.276150 
-14.012800 -11.717400 1.156300 
-10.605300 -14.692700 -2.896040 
-10.546700 -14.679200 -2.533390 
-12.840600 -14.407700 -2.943860 
-11.375900 -14.586700 -2.440260 
-10.614000 -14.648100 -2.214990 
-11.944800 -14.521100 -2.224280 
-12.203800 -14.489600 -1.898210 
-13.694000 -13.600500 -1.977560 
-11.465500 -14.573900 -1.604160 
-11.205500 -14.604000 -1.252500 
-11.907900 -14.511500 -1.274910 
-13.337600 -14.044800 -1.338090 
-11.285200 -14.580100 -1.009060 
-11.697700 -14.539300 -0.362747 
-10.937600 -14.621600 -0.304873 
-12.654000 -14.139800 -0.302127 
-11.540900 -14.559500 -0.157548 
-14.089900 -13.641300 -0.177708 
-14.763800 -13.654100 -0.190720 
-11.843800 -14.530000 -0.083172 
-11.733800 -14.524000 0.185355 
-11.565500 -14.530700 0.191701 
-10.715900 -14.647100 0.243968 
-10.822200 -14.640100 0.336715 
-12.156700 -13.708800 0.349816 
-10.600800 -14.665200 0.386800 
-12.016000 -14.495400 0.426634 
-13.140500 -13.580900 0.410469 
-11.215500 -14.612400 0.447278 
-11.935800 -14.499800 0.491882 
-11.901700 -14.494700 0.504753 
-12.866000 -13.622300 0.502101 
-11.805900 -14.508700 0.562889 
-11.690500 -14.521500 0.658315 
-11.633800 -14.517200 0.661870 
-10.447700 -14.679700 0.685153 
-10.920400 -14.630400 0.724487 
-11.497400 -14.554500 0.845236 
-10.809000 -14.638700 0.872393 
-11.566500 -14.558200 1.241490 
-11.291700 -14.594300 1.245330 
-11.749800 -14.543700 1.273900 
-12.208300 -13.689200 1.207170 
-11.185000 -14.603300 1.266780 
-10.809800 -14.648200 1.260370 
-11.463100 -14.549500 1.316280 
-11.513400 -14.537100 1.322850 
-10.328600 -14.673000 1.338520 
-10.353200 -14.670000 1.353970 
-11.798800 -14.382900 1.490740 
-10.284000 -14.545000 1.532230 
-12.635900 -13.539500 1.604980 
-12.643100 -13.532800 1.618750 
-10.423700 -14.536900 1.704240 
-12.150200 -14.507800 -3.273870 
-11.561300 -14.540400 -2.886640 
-12.681000 -14.432400 -2.907270 
-16.380199 -13.961800 -3.485560 
-13.238500 -14.357100 -2.715370 
-16.595301 -13.930400 -2.885020 
-13.305200 -14.056600 -1.234020 
-13.256500 -14.065200 -1.220190 
-10.777800 -14.663700 -0.666896 
-11.759200 -14.538500 -0.732317 
-11.590700 -14.572300 -0.671677 
-14.331100 -13.694700 -0.696242 
-13.189700 -13.993900 -0.443727 
-10.775100 -14.665300 -0.287041 
-13.279800 -14.065600 -0.196021 
-12.036000 -14.484700 -0.149810 
-14.039200 -13.713800 -0.142589 
-12.403100 -13.978500 -0.064137 
-15.030900 -13.648500 -0.025498 
-10.807400 -14.635800 0.111815 
-11.726400 -14.536400 0.110499 
-14.492700 -13.408200 0.317654 
-10.697700 -14.650900 0.424970 
-11.545600 -14.554900 0.693807 
-10.899200 -14.652200 0.904376 
-12.688000 -13.621400 1.030520 
-12.885800 -12.290200 1.034360 
-10.721700 -14.636200 1.192390 
-12.841300 -12.329900 1.205770 
-10.293600 -14.552900 1.521650 
-10.207100 -14.559400 1.690540 
-13.189500 -13.964900 -2.358690 
-13.210200 -13.834500 -1.919040 
-11.299300 -14.585900 -1.617260 
-12.249800 -14.486500 -1.289320 
-11.151500 -14.621200 -1.024610 
-11.680300 -14.524200 -1.049660 
-14.320500 -13.474100 -0.235971 
-11.343100 -14.567100 0.354707 
-14.708200 -13.389800 0.334893 
-12.572100 -13.649600 0.367356 
-10.934200 -14.633000 0.679621 
-11.111200 -14.616900 0.907603 
-10.357700 -14.691100 0.939797 
-11.604300 -14.535800 1.185150 
-11.401900 -14.554800 1.183270 
-11.805000 -14.538000 1.241840 
-10.490200 -14.667500 1.187070 
-11.219500 -14.580600 1.347870 
-13.021500 -12.077000 1.292450 
-13.455700 -14.015900 -0.383966 
-10.811000 -14.621000 0.092569 
-15.293900 -13.512400 0.086270 
-12.920800 -13.609900 0.356706 
-12.661800 -13.642100 0.358175 
-13.951300 -13.477800 0.353524 
-13.560400 -13.527300 0.358283 
-13.103100 -13.578400 0.372962 
-11.001700 -14.639200 0.642590 
-11.030300 -14.596400 1.159220 
-11.105900 -14.461700 1.510430 
-10.236800 -14.548200 1.703110 
-12.690900 -14.429500 -1.882990 
-11.319800 -14.591000 -0.696946 
-13.189700 -14.073200 -0.323473 
-13.361600 -14.053800 -0.319913 
-11.477600 -14.564500 0.186490 
-11.893900 -14.490100 0.266642 
-11.034300 -14.616200 0.425765 
-11.280700 -14.610200 0.647345 
-11.063600 -14.600400 1.292240 
-12.927700 -12.082500 1.476150 
-14.407000 -13.752800 -1.416090 
-14.831600 -13.583100 -0.910491 
-11.498600 -14.534400 -0.368344 
-14.115900 -13.593000 -0.217859 
-13.872300 -13.820600 -0.108630 
-14.646100 -13.694400 -0.632697 
-12.956500 -13.595400 0.506402 
-12.760800 -13.620400 0.528938 
-10.863500 -14.591900 1.186660 
-11.316900 -14.561500 1.287700 
-14.139900 -13.773400 -0.792864 
-12.375700 -14.009800 0.072676 
-12.982700 -14.095700 -0.417452 
-13.288100 -14.360500 -2.015100 
-16.537600 -13.934800 -3.216080 
-16.853600 -13.884800 -2.880400 
-16.475300 -13.947600 -2.909570 
-16.785000 -13.894200 -2.860960 
-16.333500 -13.978000 -2.897790 
-14.774200 -13.509300 -2.561620 
-14.305000 -13.568700 -2.561710 
-12.902100 -14.401900 -2.932660 
-12.451000 -14.459300 -2.893050 
-12.443500 -14.457900 -2.728180 
-14.645700 -13.673200 -1.974800 
-12.424000 -14.445800 -2.418840 
-10.920100 -14.644500 -2.608950 
-10.559600 -14.686600 -2.622610 
-12.726700 -14.410300 -2.267160 
-14.353900 -13.717700 -1.853030 
-14.562200 -13.696900 -1.723600 
-10.688800 -14.649000 -2.269620 
-12.279200 -14.480800 -1.896680 
-14.041700 -13.765300 -1.405930 
-12.411900 -14.479100 -1.838950 
-12.277900 -14.483700 -1.851410 
-11.937500 -14.525800 -1.864760 
-11.834600 -14.527900 -1.844350 
-10.919300 -14.655600 -1.935790 
-15.014400 -13.601200 -1.022900 
-15.037300 -13.631400 -1.001720 
-15.838100 -13.734600 -0.812812 
-14.370600 -13.482700 -0.452048 
-13.728200 -13.799500 -0.458791 
-11.526100 -14.561700 -0.913190 
-12.962300 -14.102200 -0.089756 
-11.182800 -14.608000 -0.591646 
-12.080800 -14.500600 -0.347462 
-14.400100 -13.433000 0.421757 
-11.436000 -14.577300 -0.384760 
-11.082400 -14.617800 -0.345478 
-13.192100 -13.575400 0.364645 
-12.874000 -13.618100 0.334601 
-13.280100 -13.573000 0.486232 
-13.552000 -11.773600 0.923967 
-12.681300 -13.644200 0.520475 
-13.774000 -11.748700 1.247540 
-10.922400 -14.639900 0.118856 
-11.662000 -14.552600 0.378018 
-13.009000 -12.106800 1.045400 
-12.982100 -12.150600 1.137160 
-10.341200 -14.700900 0.129305 
-12.895500 -12.264200 1.159000 
-12.907700 -12.250700 1.173490 
-11.892600 -14.512600 0.684416 
-12.776800 -13.596700 1.063480 
-12.496500 -13.638900 1.045970 
-11.150000 -14.598300 0.645354 
-12.414300 -13.654500 1.141330 
-11.753800 -14.540100 0.916116 
-11.695100 -14.541700 0.920984 
-12.384300 -13.568400 1.621010 
-11.624000 -14.523900 1.350600 
-11.165100 -14.453200 1.481300 
-13.512200 -14.333300 -3.484610 
-14.254100 -13.569300 -2.554850 
-12.009000 -14.509900 -3.043170 
-13.805000 -13.555100 -2.239580 
-12.246000 -14.465100 -2.477250 
-14.416500 -13.680300 -1.895770 
-11.868600 -14.569000 -2.233450 
-11.283500 -14.581800 -2.241350 
-14.118000 -13.783300 -1.408380 
-10.975800 -14.636500 -2.020250 
-11.446400 -14.575300 -1.635090 
-11.552400 -14.575200 -1.565170 
-15.106900 -13.632700 -0.695258 
-15.514500 -13.747000 -0.456733 
-14.317700 -13.515200 -0.418886 
-11.499800 -14.565900 -1.178570 
-10.814200 -14.656700 -1.329980 
-14.857200 -13.667000 -0.177479 
-11.718200 -14.537000 -0.887746 
-11.735500 -14.522500 -0.830259 
-11.804900 -14.512000 -0.678490 
-11.127500 -14.603500 -0.587582 
-13.673900 -13.523000 0.367819 
-13.711800 -13.508800 0.395137 
-12.563100 -13.896000 0.090848 
-11.997600 -14.516500 -0.113521 
-13.142600 -13.582300 0.416545 
-13.113300 -13.597800 0.424775 
-11.752300 -14.527400 0.262362 
-12.052700 -14.496800 0.397285 
-13.118000 -11.998900 1.036270 
-12.825000 -12.359300 0.917430 
-10.817600 -14.640600 0.189700 
-12.707200 -13.612200 1.021140 
-11.656900 -14.529700 0.638378 
-12.673800 -13.609900 1.208720 
-11.126700 -14.599200 0.654688 
-10.541500 -14.545500 1.547060 
-10.398800 -14.525600 1.525860 
-10.311200 -14.540100 1.516740 
-15.445200 -13.365200 -2.818780 
-14.843300 -13.459400 -2.235280 
-13.734100 -13.612000 -2.021530 
-11.518900 -14.605600 -2.551800 
-15.306400 -13.633700 -1.384120 
-10.527900 -14.688200 -1.957050 
-11.569500 -14.575800 -1.314370 
-11.595100 -14.551600 -0.882841 
-13.565300 -13.669500 0.276724 
-12.906200 -12.259100 1.021880 
-11.425600 -14.565100 0.377762 
-10.893200 -14.649200 0.439932 
-12.747900 -12.484400 1.396910 
-10.411800 -14.683500 0.646058 
-14.432800 -13.419700 -0.369640 
-13.847800 -13.787900 -0.554739 
-14.922000 -13.676100 -0.067808 
-13.228300 -14.055300 -0.319796 
-11.414800 -14.568900 0.120638 
-12.766800 -13.600700 1.219530 
-12.859500 -13.542500 1.391090 
-11.719200 -14.517900 1.076700 
-10.987500 -14.620700 0.928316 
-11.223400 -14.609200 -2.890370 
-13.911500 -13.538000 -1.307070 
-14.495100 -13.714300 -1.279790 
-13.939700 -13.525400 0.300751 
-12.163700 -13.707500 0.501571 
-11.458800 -14.420300 1.506350 
-13.712700 -13.702400 -2.542800 
-14.128100 -13.671800 -1.365420 
-13.568300 -13.931500 -1.324300 
-12.801400 -14.117800 -0.432733 
-13.330800 -14.059600 -0.300252 
-11.491500 -14.567800 1.265530 
-10.421000 -14.530800 1.568850 
-12.062300 -14.493000 -0.602917 
-11.364300 -14.550400 1.216280 
-14.108500 -13.678000 -1.208360 
-13.168700 -11.860800 0.897849 
-10.241900 -14.591700 1.405070 
-12.524400 -14.219500 -0.589029 
-17.052200 -13.872400 -3.712420 
-13.524400 -14.329700 -3.481240 
-14.954500 -13.470700 -2.081140 
-12.279200 -14.475100 -3.515870 
-14.785500 -13.656100 -1.676810 
-14.518200 -13.697600 -1.710920 
-14.582000 -13.716700 -1.278350 
-11.169800 -14.623800 -3.203820 
-15.613100 -13.739800 -0.628373 
-11.486500 -14.575600 -2.897540 
-12.659000 -14.429700 -2.123060 
-15.542600 -13.762400 -0.390834 
-10.813200 -14.657900 -3.012150 
-14.352300 -13.637400 -0.736877 
-13.817300 -13.777900 -0.976707 
-14.759500 -13.631400 -0.048226 
-13.219900 -14.070800 -0.953604 
-14.985000 -13.351000 0.369018 
-12.356800 -13.814800 -0.922311 
-10.753900 -14.659100 -2.042540 
-13.425800 -14.047300 -0.111325 
-13.788200 -13.502900 0.344730 
-13.738000 -13.505100 0.386311 
-12.959700 -14.101700 -0.087275 
-11.512700 -14.580900 -0.660444 
-12.923500 -13.617300 0.524298 
-11.557200 -14.565600 -0.329185 
-11.591900 -14.549400 -0.026996 
-11.660800 -14.550300 0.377814 
-17.037001 -13.864100 -3.220970 
-15.180400 -13.259000 -2.943460 
-15.241200 -13.240700 -2.821400 
-13.964000 -13.532500 -2.282980 
-12.523400 -14.443000 -3.196640 
-12.885200 -14.412200 -2.914250 
-15.643100 -13.733800 -0.636865 
-14.300400 -13.715400 -0.764737 
-10.761500 -14.654100 -2.860300 
-10.707800 -14.674300 -2.880260 
-13.852500 -13.781600 -0.838670 
-12.547300 -14.434500 -1.568340 
-11.931600 -14.537500 -1.884790 
-13.459900 -14.030000 -0.092648 
-10.990100 -14.630600 -1.570640 
-12.626400 -13.642300 0.353340 
-12.675200 -13.643200 0.522117 
-12.672700 -13.612500 1.218680 
-12.690000 -13.613400 1.252340 
-14.413900 -13.720800 -1.714590 
-15.586300 -13.722500 -1.098160 
-14.492100 -13.668700 -1.323450 
-12.683900 -14.433300 -2.138290 
-13.413000 -14.021900 -1.420080 
-14.957400 -13.650200 -0.183256 
-13.789200 -13.801800 -0.084784 
-13.833000 -13.790800 -0.043417 
-15.083900 -13.417700 -1.938240 
-15.059100 -13.628200 -1.078300 
-14.085400 -13.642400 -0.226481 
-13.771700 -13.506200 0.408613 
-13.302800 -13.578500 0.306938 
-11.998700 -14.499600 -0.661459 
-13.159200 -11.899700 1.225450 
-11.433800 -14.575900 -0.388476 
-15.047500 -13.308200 -2.995750 
-14.317500 -13.748600 -0.776426 
-13.902600 -13.780300 -0.109721 
-12.477200 -13.662300 0.412002 
-14.386000 -13.467700 -2.986710 
-10.815100 -14.647700 -0.744746 
-14.468500 -13.617100 -0.920418 
-15.049100 -13.460600 -1.943030 
-14.140600 -13.687900 -1.290680 
-14.433900 -13.597400 -0.464381 
-14.248800 -13.581800 -2.521410 
-14.005200 -13.609500 -2.522080 
-14.713600 -13.666600 -1.612280 
-15.608000 -13.770400 -0.790979 
-14.373000 -13.717100 -1.691580 
-15.080900 -13.630900 -0.581160 
-14.032100 -13.744900 -1.403020 
-14.362200 -13.631000 -0.737084 
-14.353100 -13.470700 -0.410646 
-13.938100 -13.749900 -1.041330 
-13.995000 -13.766200 -0.719169 
-13.939900 -13.484200 0.376361 
-13.301100 -13.561800 0.379081 
-11.357600 -14.588900 -2.444200 
-12.946400 -12.178300 1.242090 
-12.669200 -13.639100 0.382009 
-12.265100 -13.696700 0.520552 
-11.610200 -14.549100 -0.203613 
-15.016200 -13.431800 -2.262400 
-12.936700 -14.391200 -3.214360 
-13.547200 -14.011100 -0.168504 
-13.285700 -13.569500 0.493946 
-10.691200 -14.668200 -2.839190 
-12.636900 -13.655200 0.497664 
-15.553500 -13.572300 -2.003410 
-13.794900 -13.797000 -0.182128 
-14.141200 -13.454000 0.531239 
-12.095400 -14.488400 -0.662498 
-11.861200 -14.521600 -0.402447 
-10.724000 -14.663400 -0.694237 
-15.001500 -13.601500 -0.994786 
-11.650600 -14.555600 0.183227 
-10.216500 -14.559300 1.743440 
-15.834300 -13.461900 -2.125720 
-13.739800 -13.695000 -3.142030 
-14.292800 -13.726300 -1.901600 
-11.471600 -14.569300 0.038067 
-10.456900 -14.522300 1.563070 
-14.256500 -13.685500 -1.811390 
-14.380500 -13.821500 -1.341930 
-10.667100 -14.682000 -2.876720 
-14.033200 -13.563000 -2.143880 
-14.273400 -13.731900 -1.485970 
-13.514100 -13.814600 -2.116300 
-14.770400 -13.654800 -1.593010 
-16.301800 -13.955900 -3.382490 
-15.521600 -13.751900 -0.538624 
-15.154200 -13.617800 -0.716627 
-15.079500 -13.628900 -0.577696 
-14.895100 -13.657100 -0.969255 
-14.487000 -13.700700 -1.690460 
-13.807700 -11.738700 1.280110 
-13.919700 -13.570400 -2.185510 
-13.918000 -13.776500 -0.573442 
-12.954000 -12.184900 1.134250 
-13.226500 -14.061000 -0.946732 
-13.171700 -14.040700 -0.590027 
-12.643200 -13.643500 0.503563 
-11.578300 -14.564100 -1.378120 
-11.609400 -14.553200 -0.205244 
-14.894300 -13.471200 -2.055560 
-15.082800 -13.633300 -0.191791 
-13.808000 -13.799000 -0.101637 
-12.608400 -13.654300 0.444353 
-12.602800 -13.793300 0.252115 
-12.660800 -13.621500 1.242480 
-11.877600 -14.522100 0.650348 
-11.195900 -14.610100 -0.305529 
-11.620100 -14.545300 1.272770 
-14.476800 -13.675800 -1.273330 
-14.364900 -13.738100 -1.310860 
-13.800100 -13.800700 -0.175815 
-12.285900 -13.845800 -0.794158 
-11.636200 -14.562600 -2.497450 
-11.406600 -14.562300 -0.051590 
-14.247300 -13.563300 -2.558230 
-14.684800 -13.674400 -0.976867 
-12.410000 -13.813400 -0.883633 
-14.483300 -13.690800 -1.127570 
-13.792900 -13.577700 -2.248900 
-12.015600 -14.488500 -1.036450 
-12.085600 -14.488600 -0.678303 
-13.444600 -14.014000 -0.568628 
-14.372600 -13.793400 -0.660704 
-14.337000 -13.784300 -0.410950 
-10.266300 -14.634000 1.435860 
-13.190400 -11.736900 1.603150 
-15.080700 -13.594700 -1.037480 
-14.820900 -13.657300 -2.030990 
-14.327100 -13.477200 -0.387007 
-14.187100 -13.742200 -1.589680 
-12.884500 -12.280700 0.956882 
-13.926000 -13.746700 -1.041500 
-13.746100 -13.798300 -0.720860 
-13.746000 -13.804600 -0.199523 
-12.823300 -13.488600 1.442710 
-12.506800 -13.635400 1.293790 
-11.976900 -14.522200 -2.280170 
-11.970600 -14.526200 -1.084980 
-11.846600 -14.522400 0.449436 
-11.638000 -14.545900 1.272860 
-11.507500 -14.567500 -0.960443 
-11.368300 -14.589700 -2.441380 
-11.331200 -14.568200 1.111680 
-15.074200 -13.633400 -0.630651 
-14.973900 -13.643600 -0.396765 
-13.133100 -11.952600 1.256590 
-14.309500 -13.465000 -0.338115 
-13.810200 -13.791000 -0.046698 
-12.643200 -13.643100 0.456012 
-12.603400 -13.801100 0.254957 
-16.349701 -13.955400 -2.764840 
-11.988500 -14.509100 -1.210350 
-11.832900 -14.524400 -0.656761 
-11.627800 -14.554000 0.821628 
-11.406300 -14.566800 -0.004758 
-11.178000 -14.618300 -2.831970 
-11.315400 -14.574700 1.218690 
-10.677800 -14.662700 -0.341463 
-15.208100 -13.592300 -1.530330 
-14.116000 -13.745300 -1.578750 
-12.791400 -13.629000 0.434935 
-12.913600 -14.387300 -2.854940 
-11.635000 -14.554700 -0.260865 
-11.355700 -14.563600 1.133450 
-10.364900 -14.535200 1.628460 
-10.209900 -14.553500 1.498110 
-13.811000 -13.575600 -2.146190 
-14.818400 -13.637400 -0.098665 
-11.632300 -14.548900 0.354042 
-13.468800 -14.023500 -0.502848 
-14.440300 -13.526800 -0.650924 
-10.428900 -14.527200 1.619840 
-14.898000 -13.654700 -0.197404 
-14.972700 -13.640400 -0.574878 
-14.325900 -13.451400 -0.347285 
-14.292300 -13.518600 -0.402937 
-13.935000 -13.486700 0.391745 
-14.759000 -13.675300 -1.513370 
-14.809900 -13.655600 -1.689100 
-13.930800 -13.787000 -0.445151 
-13.786500 -13.794100 -0.213473 
-13.910000 -13.776700 -0.577282 
-14.157900 -13.746800 -1.579510 
-12.277400 -13.666200 1.246740 
-13.169600 -14.041300 -0.590809 
-12.831900 -14.116600 -0.085742 
-12.143200 -13.685000 0.954105 
-12.257800 -14.489600 -1.895060 
-10.718700 -14.651100 1.155640 
-11.623900 -14.552600 -3.437370 
-14.978300 -13.645900 -0.097432 
-16.304399 -13.959100 -2.979120 
-14.420000 -13.763700 -0.977341 
-13.949400 -13.769100 -0.171236 
-13.858400 -13.776000 -0.253271 
-12.583000 -14.422800 -1.507550 
-12.142600 -14.494800 -0.299486 
-11.707900 -14.554600 0.332270 
-11.686100 -14.562700 0.407569 
-10.749700 -14.667500 -2.887190 
-10.706000 -14.666900 -2.759920 
-14.949900 -13.648800 -0.484527 
-14.981400 -13.644100 -0.622292 
-15.062800 -13.623000 -0.974786 
-12.732700 -13.604800 1.048750 
-12.785900 -13.632600 0.438685 
-13.320900 -14.048300 -0.805123 
-13.254400 -14.050900 -0.813264 
-12.189100 -13.707800 0.295038 
-12.342900 -13.990200 -0.106147 
-11.896200 -14.517100 1.004830 
-11.713600 -14.536800 1.297510 
-12.861300 -14.402500 -3.185550 
-11.170700 -14.454400 1.530540 
-11.161200 -14.453700 1.500340 
-10.710400 -14.673100 -0.684211 
-12.885500 -12.259800 1.181380 
-14.875700 -13.493300 -1.881100 
-12.872300 -14.396400 -1.628800 
-11.967100 -14.510200 -1.183430 
-11.056300 -14.616900 0.866686 
-12.154400 -14.495600 -3.293790 
-10.669300 -14.656900 -0.214549 
-14.586400 -13.626600 -0.865102 
-11.991400 -14.506900 -1.036880 
-11.752000 -14.543000 -0.802818 
-11.348900 -14.586800 -2.349400 
-10.788100 -14.664300 -0.971607 
-13.361900 -14.047000 -0.288680 
-11.269300 -14.595400 -0.270898 
-11.580200 -14.572100 -2.534990 
-10.426600 -14.520100 1.618280 
-14.461700 -13.675400 -0.984607 
-12.041900 -14.471900 1.011610 
-13.013200 -12.106700 1.298110 
-15.056200 -13.638700 -0.202510 
-14.892900 -13.652300 -0.196865 
-15.092100 -13.639200 -0.450504 
-16.580200 -13.930800 -3.514810 
-12.692300 -13.642900 0.538848 
-14.700400 -13.653200 -1.911800 
-14.386100 -13.718900 -1.695610 
-16.110800 -13.984900 -3.549590 
-14.311100 -13.723700 -1.683000 
-14.218400 -13.735700 -1.624770 
-13.280500 -13.917500 -0.470627 
-11.741200 -14.536900 1.305720 
-11.596700 -14.562900 0.907544 
-11.549400 -14.547100 0.762974 
-11.140700 -14.591600 1.012510 
-11.130100 -14.591300 0.975578 
-12.070900 -14.499700 -0.660969 
-11.180700 -14.604400 0.585967 
-10.680200 -14.645900 1.011010 
-10.994900 -14.619200 0.259560 
-11.378600 -14.586400 -1.266070 
-11.347600 -14.587700 -1.226180 
-14.226500 -13.453000 0.495891 
-12.783300 -13.535700 1.437080 
-16.851999 -13.882700 -2.894120 
-13.945600 -13.767900 -0.236055 
-13.094100 -13.588400 0.508815 
-13.831300 -13.783100 -0.239345 
-16.307800 -13.958600 -2.977020 
-12.414200 -13.648400 1.076010 
-12.151400 -13.681900 1.229990 
-12.722500 -13.634200 0.505179 
-13.774500 -13.791700 -0.758030 
-12.287600 -13.701000 0.496680 
-13.338500 -14.046100 -0.789950 
-13.825800 -13.564300 -2.206630 
-11.620200 -14.562300 0.896315 
-11.336000 -14.567600 1.220420 
-11.736400 -14.530600 0.370355 
-11.380900 -14.566300 0.838299 
-11.006400 -14.611700 1.038430 
-12.563000 -14.438200 -1.322180 
-12.539600 -14.443600 -1.321620 
-12.074500 -14.493000 -0.721073 
-10.718300 -14.650600 1.149980 
-11.603000 -14.553000 -0.223693 
-10.694700 -14.647500 1.013180 
-11.725400 -14.540700 -0.684348 
-12.252800 -14.487600 -1.896120 
-11.860800 -14.528000 -1.674380 
-11.359200 -14.591100 -2.432920 
-11.003100 -14.641600 -2.163020 
-13.136800 -11.943300 1.240400 
-13.070900 -12.019700 1.165930 
-13.537900 -13.533000 0.337401 
-13.360500 -13.551400 0.543039 
-13.506000 -13.546000 0.350758 
-16.554100 -13.935800 -2.915160 
-14.447000 -13.615000 -0.860265 
-12.637200 -13.624300 1.124910 
-16.324800 -13.963600 -2.808240 
-13.789300 -13.797800 -0.221223 
-13.776900 -13.794000 -0.241218 
-13.771800 -13.794400 -0.509023 
-14.938600 -13.440900 -2.178290 
-12.708700 -13.634000 0.542457 
-12.668700 -13.644000 0.569907 
-12.221700 -13.701000 0.349993 
-11.724000 -14.523800 1.132530 
-11.159600 -14.454400 1.501420 
-11.698500 -14.544900 -0.769619 
-11.216800 -14.597400 -0.160776 
-12.245100 -14.479500 -1.919800 
-10.766500 -14.635900 0.065351 
-13.999800 -13.473900 0.540413 
-12.524000 -13.635400 1.279090 
-12.991600 -14.111000 -0.121907 
-13.808600 -13.560900 -2.242590 
-13.176900 -14.051300 -1.166420 
-11.055900 -14.612300 0.873753 
-12.107000 -14.491700 -0.690285 
-12.004800 -14.511000 -1.240870 
-11.696500 -14.543600 -0.845761 
-11.256700 -14.594400 -1.237290 
-11.929900 -14.594900 -2.890430 
-11.686000 -14.559900 -3.233870 
-14.424500 -13.684200 -1.318090 
-14.040700 -13.758800 -1.363160 
-12.270500 -13.695300 0.464722 
-12.346700 -13.986500 -0.037339 
-10.477000 -14.525700 1.699680 
-10.706300 -14.653400 -0.244021 
-14.364800 -13.718000 -1.768730 
-11.801500 -14.506700 0.546531 
-11.878100 -14.515900 -0.613472 
-11.906500 -14.538300 -0.951373 
-11.896400 -14.513700 -1.062360 
-14.021200 -13.738900 -0.139746 
-13.108300 -11.986500 1.143810 
-14.174400 -13.460200 0.357898 
-12.724500 -13.602900 1.210500 
-12.547200 -13.629300 1.239360 
-12.438200 -13.650400 1.288350 
-13.743600 -13.511000 0.500377 
-13.764700 -13.505000 0.391225 
-14.895700 -13.658400 -0.197154 
-12.156700 -13.680600 1.224090 
-12.142500 -13.688000 1.220180 
-14.084700 -13.650900 -0.193306 
-12.928500 -13.602300 0.378994 
-12.642100 -13.648700 0.511191 
-13.907800 -13.777200 -0.195363 
-13.856100 -13.779600 -0.244781 
-13.733400 -13.801800 -0.199478 
-11.816900 -14.518100 1.238610 
-11.663100 -14.544000 1.238130 
-13.820400 -13.799000 -0.461723 
-13.416300 -14.047000 -0.114533 
-12.262200 -13.695600 0.377076 
-13.910200 -13.774100 -0.716962 
-12.963300 -14.106500 -0.088463 
-11.071000 -14.626300 1.259560 
-11.547400 -14.547100 0.765974 
-11.934300 -14.500800 0.490079 
-10.951200 -14.613500 1.191390 
-11.298900 -14.570600 0.827917 
-11.885200 -14.509700 0.394619 
-11.857700 -14.505500 0.395648 
-14.313900 -13.721400 -1.684000 
-14.166100 -13.749000 -1.583470 
-14.185600 -13.738500 -1.616300 
-13.266700 -14.049300 -0.870060 
-11.673600 -14.562400 0.383398 
-11.846000 -14.523900 0.235058 
-10.943400 -14.637000 0.707263 
-14.375800 -13.691400 -2.092010 
-11.721100 -14.528300 0.024157 
-12.143400 -14.500100 -0.321775 
-11.666200 -14.529600 -0.065698 
-14.384000 -13.556000 -2.515600 
-10.865100 -14.628600 0.091855 
-11.728400 -14.546700 -0.800245 
-11.186300 -14.613300 -0.365680 
-12.893800 -14.394400 -1.924450 
-10.413100 -14.691500 -0.016773 
-13.835100 -13.721400 -3.238460 
-10.449100 -14.694900 -0.255923 
-11.343500 -14.600900 -1.271380 
-10.818800 -14.640600 -1.164430 
-11.378100 -14.591700 -2.524480 
-13.013000 -12.079200 1.247900 
-13.039800 -12.051400 1.212480 
-13.125400 -11.970300 1.028940 
-12.807700 -12.377500 1.226780 
-15.117700 -13.332200 0.371876 
-12.689400 -13.525100 1.606750 
-14.817000 -13.377200 0.337440 
-14.227000 -13.448900 0.495363 
-12.735500 -13.598000 1.223880 
-15.520500 -13.740000 -0.452388 
-13.581600 -13.532500 0.491996 
-14.789900 -13.667200 -0.181547 
-12.259400 -13.690200 1.206120 
-15.126100 -13.625500 -0.453837 
-15.734000 -13.748800 -0.787591 
-15.560100 -13.774400 -0.788121 
-12.158800 -13.678100 0.935215 
-14.134000 -13.639000 -0.282805 
-15.050800 -13.608100 -1.039610 
-13.880800 -13.788500 -0.333681 
-11.774200 -14.538100 1.298660 
-14.368500 -13.634200 -0.719970 
-11.770900 -14.538500 1.268320 
-11.959300 -14.501300 1.134270 
-12.288700 -13.697500 0.494712 
-11.641400 -14.536000 1.186950 
-12.280500 -13.686300 0.378226 
-12.242100 -13.697000 0.403462 
-10.937800 -14.611300 1.341490 
-11.674500 -14.534100 0.779586 
-11.719800 -14.532500 0.660769 
-11.259500 -14.578100 0.950785 
-13.268400 -14.039500 -0.634807 
-11.446600 -14.565100 0.761275 
-11.006100 -14.617500 1.039940 
-14.529800 -13.689300 -1.855110 
-10.845400 -14.631000 0.998980 
-10.703700 -14.641500 1.086850 
-10.726600 -14.639900 1.057950 
-15.660500 -13.617900 -2.801540 
-10.979000 -14.627400 0.805248 
-10.682000 -14.654700 0.664418 
-11.529000 -14.551700 -0.053395 
-13.488600 -14.027000 -1.753190 
-13.875600 -13.568000 -2.184760 
-11.856700 -14.521500 -0.389089 
-13.894100 -13.588300 -2.231630 
-13.942500 -13.573300 -2.273590 
-11.600600 -14.556000 -0.219136 
-11.846200 -14.521400 -0.467773 
-10.449700 -14.678100 0.513404 
-10.778100 -14.636800 0.084360 
-11.235700 -14.612200 -0.325354 
-12.254700 -14.478000 -1.322580 
-12.912700 -14.378900 -1.925660 
-12.461900 -14.462000 -1.587430 
-10.620800 -14.669200 -0.663069 
-10.749500 -14.669100 -0.931259 
-10.791800 -14.639000 -1.099070 
-10.884300 -14.634500 -1.227420 
-11.918300 -14.518200 -2.290770 
-13.154100 -11.920900 1.073360 
-12.750100 -13.597800 1.039150 
-13.809100 -13.489800 0.382258 
-15.078100 -13.628600 -0.378243 
-11.681000 -14.534100 1.288410 
-11.916100 -14.513700 1.099530 
-12.230800 -13.700400 0.342778 
-13.876900 -13.774200 -0.712783 
-11.053600 -14.621200 1.254300 
-11.422700 -14.563700 0.757465 
-16.311899 -13.964400 -2.828120 
-13.554500 -14.009500 -0.928642 
-11.498300 -14.559300 0.612979 
-15.018400 -13.426900 -2.262380 
-10.727100 -14.646900 1.011420 
-11.921200 -14.503900 0.056930 
-10.972000 -14.622700 0.473998 
-11.510500 -14.553100 -0.067896 
-11.644100 -14.544000 -0.367594 
-11.927500 -14.516300 -0.605500 
-11.108100 -14.617500 -0.356396 
-12.433300 -14.459500 -1.591330 
-11.899300 -14.537700 -1.609130 
-12.646200 -13.623300 1.156170 
-13.383300 -13.551200 0.531653 
-11.832000 -14.506900 1.330370 
-11.699700 -14.535200 1.250630 
-11.628300 -14.569700 1.260720 
-13.801100 -13.802300 -0.700796 
-12.191700 -13.713100 0.305574 
-10.543900 -14.529800 1.673360 
-11.736500 -14.500500 0.888361 
-11.266200 -14.569200 1.162730 
-11.149800 -14.610100 1.248420 
-13.141500 -14.041600 -0.545810 
-12.036100 -14.490600 0.090760 
-10.816300 -14.638100 0.899224 
-10.719400 -14.663100 0.899916 
-13.190900 -14.047800 -1.189240 
-11.898900 -14.510000 -0.632360 
-10.732200 -14.668000 -2.875710 
-14.458300 -13.422700 0.385930 
-14.017200 -13.461100 0.529976 
-13.977000 -13.481100 0.521870 
-13.484000 -13.546000 0.355492 
-12.786200 -13.624300 0.532685 
-12.517400 -13.663600 0.386801 
-11.707800 -14.527700 1.146120 
-14.003800 -13.759200 -1.069740 
-10.328000 -14.536700 1.621490 
-10.302500 -14.550700 1.518330 
-13.459400 -14.013900 -0.853061 
-11.661200 -14.532300 0.322296 
-11.662900 -14.553200 -0.147379 
-12.854500 -14.389000 -1.974290 
-13.802500 -13.736600 -3.254930 
-10.668800 -14.663400 -0.683346 
-11.657000 -14.547500 -2.533630 
-12.849300 -13.616900 0.451164 
-12.701200 -13.639600 0.518871 
-11.872800 -14.510500 1.261260 
-14.354200 -13.782900 -0.935082 
-14.477700 -13.739500 -1.288170 
-14.849000 -13.543400 -1.870200 
-14.518400 -13.689900 -1.914680 
-13.108500 -14.070400 -1.231960 
-10.800300 -14.666700 -0.913297 
-11.798300 -14.536800 1.243720 
-11.890500 -14.535400 -0.956289 
-11.783000 -14.534300 -3.066850 
-13.484600 -14.019000 -0.952936 
-14.206400 -13.763400 -0.531246 
-14.273700 -13.841500 -0.688140 
-13.895300 -13.740500 -1.338350 
-14.322600 -13.547600 -0.149242 
-14.283000 -13.684200 -0.372339 
-13.775300 -11.744200 1.248890 
-13.930500 -11.728200 0.922219 
-13.015900 -12.105300 1.133870 
-12.263100 -13.679700 1.203790 
-14.406800 -13.435500 0.422733 
-14.003800 -13.479100 0.333054 
-11.684500 -14.525800 1.097440 
-13.139300 -13.570200 0.403054 
-11.956200 -14.497800 0.917328 
-11.858000 -14.523500 0.895292 
-11.023000 -14.615900 1.099350 
-12.458200 -13.684900 0.500073 
-11.584200 -14.565700 0.921747 
-10.404200 -14.681800 1.260940 
-10.527900 -14.677200 1.143720 
-12.419600 -13.678300 0.390475 
-11.367800 -14.565900 0.844052 
-11.339800 -14.570000 0.820358 
-11.291200 -14.576000 0.813023 
-11.330600 -14.567500 0.799431 
-15.881700 -13.738800 -0.765432 
-14.411500 -13.470100 -0.394189 
-13.785000 -13.797200 -0.207430 
-13.514700 -14.026400 -0.141594 
-11.690600 -14.562700 0.406492 
-11.432700 -14.579500 0.429842 
-11.756100 -14.536600 0.282072 
-11.881300 -14.518900 0.226554 
-10.501900 -14.680800 0.680507 
-10.721900 -14.646800 0.608015 
-15.035300 -13.607300 -1.025350 
-10.371300 -14.687300 0.638701 
-12.215300 -14.476000 -0.133843 
-11.946700 -14.521900 -0.132379 
-11.257400 -14.588100 0.029948 
-11.459200 -14.563200 -0.056038 
-13.876300 -13.749700 -1.021270 
-12.171900 -14.488100 -0.345730 
-13.264700 -14.047200 -0.864364 
-13.218500 -14.069300 -0.954047 
-11.731900 -14.539700 -0.366032 
-14.796800 -13.656200 -1.688830 
-11.357300 -14.586300 -0.351667 
-11.138000 -14.597400 -0.272253 
-12.029200 -14.495000 -0.689157 
-14.386200 -13.712300 -1.711490 
-14.287200 -13.733500 -1.688210 
-10.482600 -14.686900 -0.176953 
-14.522700 -13.696300 -1.856710 
-11.759000 -14.528100 -0.797799 
-15.134600 -13.400800 -2.246630 
-14.919900 -13.439500 -2.248950 
-16.495199 -13.963800 -2.889480 
-12.459200 -14.453700 -1.808870 
-12.643700 -14.424300 -1.949630 
-10.816900 -14.644000 -1.165950 
-11.725200 -14.560200 -1.596360 
-10.936000 -14.656600 -1.542480 
-11.614500 -14.560700 -1.880220 
-12.764200 -14.415300 -2.462110 
-11.678200 -14.548100 -2.522150 
-11.163700 -14.641600 -2.551770 
-12.748100 -13.595900 1.217020 
-14.630000 -13.393100 0.517973 
-12.202900 -13.671300 1.051000 
-12.168000 -13.674500 0.930745 
-14.219400 -13.448000 0.330177 
-11.509100 -14.554300 0.983395 
-11.000200 -14.607100 1.086350 
-14.797100 -13.578900 -0.174923 
-10.670800 -14.657000 1.083640 
-10.720800 -14.650000 1.015680 
-14.048500 -13.740500 -0.117803 
-11.452300 -14.561300 0.756291 
-11.716300 -14.520800 0.657021 
-14.113500 -13.613300 -0.213289 
-10.875700 -14.641200 0.905120 
-11.079900 -14.623100 0.718802 
-11.819400 -14.521000 0.462231 
-10.938900 -14.631200 0.706042 
-11.777000 -14.532000 0.422918 
-10.893900 -14.635000 0.704190 
-11.738400 -14.531800 0.419919 
-10.918400 -14.631100 0.675978 
-13.959300 -13.770500 -0.453765 
-10.401400 -14.685100 0.792163 
-11.663300 -14.552800 0.377087 
-11.064400 -14.601100 0.547994 
-11.372800 -14.589400 0.422230 
-10.576000 -14.686200 0.674279 
-12.038900 -14.490500 0.083952 
-14.946800 -13.625000 -1.036210 
-10.510100 -14.675300 0.521440 
-10.476800 -14.682300 0.519663 
-11.215900 -14.593000 0.203022 
-12.135400 -14.492900 -0.322186 
-11.608800 -14.567000 -0.153155 
-13.786500 -13.767500 -1.034720 
-11.548700 -14.560800 -0.156376 
-11.844900 -14.527000 -0.465403 
-11.964000 -14.506900 -0.655526 
-11.812500 -14.527400 -0.819312 
-14.226000 -13.714300 -1.840560 
-14.368800 -13.699000 -2.077100 
-13.485600 -14.032800 -1.752350 
-13.874100 -13.565100 -2.178560 
-13.955900 -13.543600 -2.240370 
-14.047200 -13.536600 -2.291000 
-12.468300 -14.474200 -1.588120 
-12.377500 -14.459600 -1.576850 
-11.347200 -14.602000 -1.275500 
-13.416200 -13.811700 -2.329100 
-12.621700 -14.430600 -2.047030 
-11.551400 -14.584100 -1.565070 
-12.403900 -14.440900 -2.139190 
-12.932000 -14.392300 -2.884690 
-10.791000 -14.666000 -2.194780 
-10.489700 -14.689200 -2.270980 
-13.002100 -12.113000 1.278590 
-12.308100 -13.595600 1.627080 
-11.814900 -14.505200 1.342200 
-13.934800 -13.482300 0.546322 
-14.054200 -13.461300 0.505328 
-11.861500 -14.519200 1.259850 
-11.451500 -14.545100 1.341260 
-11.674400 -14.539300 1.285690 
-13.365200 -13.555600 0.543734 
-11.309500 -14.588900 1.279710 
-13.946500 -13.473800 0.349076 
-13.547800 -13.542600 0.353567 
-10.661800 -14.665400 1.253640 
-10.843900 -14.627400 1.196170 
-11.634300 -14.553200 0.858757 
-10.924600 -14.620700 1.042340 
-11.253400 -14.587000 0.913667 
-10.889100 -14.628300 0.925262 
-11.761600 -14.532100 0.632025 
-14.280200 -13.567900 -0.324512 
-12.005200 -14.490400 0.478621 
-11.806600 -14.513600 0.525572 
-11.934500 -14.500100 0.368557 
-11.693800 -14.531200 0.419945 
-11.852900 -14.512300 0.255785 
-11.817700 -14.530100 0.189872 
-11.749800 -14.526300 0.168156 
-15.703000 -13.711300 -1.254930 
-11.673900 -14.564600 0.123072 
-11.688900 -14.533300 0.055072 
-11.239100 -14.593600 0.165951 
-10.470000 -14.679900 0.305261 
-13.218200 -14.029900 -1.150740 
-10.358000 -14.698100 -0.028762 
-11.229000 -14.598400 -0.627234 
-11.676200 -14.552600 -0.853060 
-10.583400 -14.668600 -0.410306 
-13.085100 -13.877400 -1.528290 
-11.743000 -14.558400 -1.006350 
-13.687300 -13.716100 -2.146310 
-10.492500 -14.525800 1.697370 
-14.199400 -13.635600 -0.153793 
-11.494000 -14.561500 0.612716 
-11.861600 -14.503800 0.366883 
-11.883100 -14.519700 -0.105777 
-10.765800 -14.645000 0.128149 
-13.578400 -13.794000 -1.299700 
-10.785000 -14.659000 -0.317703 
-10.805300 -14.633600 -0.378995 
-12.501700 -14.461900 -2.212630 
-11.368100 -14.584500 -2.465630 
-12.140900 -14.497300 -2.897570 
-11.741800 -14.528100 1.303840 
-14.257300 -13.461800 0.297656 
-10.935100 -14.617900 1.340800 
-11.174500 -14.605600 0.681382 
-11.044500 -14.621600 0.718931 
-11.919900 -14.500000 -0.152480 
-10.606600 -14.655500 -0.170427 
-11.684000 -14.498000 1.071320 
-13.175700 -14.091600 -1.278110 
-14.866800 -13.553500 -2.144490 
-13.222900 -13.809300 -2.033670 
-11.099700 -14.616100 -1.348740 
-13.696000 -13.758100 -2.622470 
-13.779700 -13.724000 -3.242370 
-11.344700 -14.636300 1.243210 
-12.895400 -13.604700 0.369219 
-15.514800 -13.706300 -1.345840 
-10.693200 -14.651900 -0.155099 
-11.476700 -14.575700 -1.601020 
-12.096900 -13.718500 1.429930 
-14.274900 -13.815200 -0.600902 
-11.637600 -14.563900 0.101568 
-11.293800 -14.591200 0.214021 
-14.175500 -13.853900 -0.876938 
-14.012600 -13.445500 0.592885 
-10.856800 -14.605000 1.165320 
-14.454200 -13.767200 -0.985937 
-12.659000 -13.601000 1.240500 
-13.835800 -13.654200 -2.104670 
-11.362300 -14.588800 -2.452210 
-11.425400 -14.605200 -2.435210 
-12.158100 -14.494400 -2.552800 
-13.954100 -13.549000 -2.235860 
-16.624701 -13.916600 -2.362160 
-14.744000 -13.665800 -1.933490 
-10.772800 -14.651800 -0.995193 
-14.490500 -13.657000 -1.309350 
-11.925600 -14.529700 -0.997182 
-11.101200 -14.614400 -0.707189 
-11.582400 -14.549400 -0.560464 
-14.362000 -13.480000 -0.407096 
-10.714000 -14.657000 -0.181722 
-11.779600 -14.541400 -0.123397 
-13.502600 -14.025300 -0.146326 
-14.838900 -13.650100 -0.163851 
-10.675700 -14.652700 0.096008 
-10.971400 -14.651400 0.140687 
-11.946600 -14.505400 0.403617 
-13.748500 -13.507500 0.372554 
-13.114300 -13.588800 0.374078 
-12.461300 -13.666600 0.388433 
-13.110800 -13.588100 0.387893 
-10.610900 -14.668600 0.426005 
-13.756400 -13.516700 0.419539 
-13.351100 -13.561200 0.500814 
-13.526600 -13.531200 0.575442 
-12.683000 -13.628300 0.576233 
-11.696600 -14.526500 0.659567 
-11.959800 -14.504400 0.677680 
-11.677900 -14.536300 0.729940 
-11.554900 -14.558500 0.769008 
-11.181100 -14.597700 0.909654 
-11.113200 -14.591200 1.015050 
-11.717900 -14.532100 1.251020 
-11.563700 -14.554500 1.239880 
-11.286900 -14.601200 1.246740 
-12.177800 -13.682000 1.218700 
-11.515500 -14.532200 1.321570 
-12.774400 -14.402000 -3.185420 
-12.930000 -14.389300 -2.846560 
-13.874800 -13.416800 -2.796980 
-11.927400 -14.499500 -2.218140 
-13.869400 -13.749200 -1.039030 
-13.861700 -13.783100 -0.977798 
-11.530500 -14.561800 -0.679573 
-11.592200 -14.564800 -0.649291 
-13.187600 -14.051600 -0.607821 
-14.280700 -13.533900 -0.373518 
-10.607200 -14.665300 -0.178546 
-13.275000 -14.058000 -0.197539 
-11.806900 -14.538400 -0.135704 
-12.368700 -13.980900 -0.120997 
-14.042100 -13.705000 -0.142294 
-12.451400 -13.969000 -0.086916 
-14.001600 -13.756800 -0.129852 
-12.366500 -13.982200 -0.076483 
-14.710000 -13.642100 -0.056676 
-11.219800 -14.575500 0.115608 
-12.353000 -13.678700 0.365276 
-12.045000 -14.500200 0.395965 
-11.812800 -14.529200 0.434233 
-11.054200 -14.664200 0.438299 
-14.275100 -13.444100 0.558189 
-13.619900 -13.517800 0.554512 
-11.495100 -14.562300 0.661973 
-10.965900 -14.643400 0.909449 
-12.269400 -13.681900 1.033190 
-13.534600 -11.784100 0.924570 
-13.118200 -11.988800 1.033200 
-11.150500 -14.603200 1.280340 
-11.627500 -14.505200 1.362190 
-10.677800 -14.645600 1.314530 
-12.784300 -13.494500 1.456240 
-10.119700 -14.565100 1.504880 
-13.220800 -11.733100 1.491140 
-11.360400 -14.595000 -1.590920 
-14.411700 -13.680200 -1.320400 
-13.254800 -14.057200 -1.215090 
-15.029800 -13.647800 -0.980275 
-13.856400 -13.782600 -0.560060 
-15.026400 -13.644900 -0.554318 
-11.213600 -14.620600 -0.357074 
-10.782300 -14.650400 -0.286025 
-13.459300 -14.014700 -0.388386 
-14.338600 -13.458400 -0.290977 
-10.781600 -14.644200 0.152076 
-11.567700 -14.534900 0.155619 
-12.128600 -13.745900 0.332719 
-11.802700 -14.523600 0.409926 
-11.720900 -14.534000 0.423205 
-11.223300 -14.612000 0.470886 
-11.109400 -14.617400 0.909921 
-11.644000 -14.513900 1.209290 
-10.730200 -14.642300 1.193960 
-11.079700 -14.608600 1.222930 
-14.036200 -11.709800 1.140240 
-11.257700 -14.569900 1.311540 
-12.753300 -13.593100 1.393240 
-12.589500 -13.595500 1.412100 
-12.050400 -13.638800 1.496260 
-10.104800 -14.565900 1.489320 
-10.307400 -14.537000 1.519950 
-10.142600 -14.566700 1.674610 
-11.463200 -14.563400 -0.973347 
-10.746200 -14.637500 -0.655003 
-11.152400 -14.580700 -0.330096 
-12.380200 -13.971100 -0.021867 
-14.547900 -13.394300 0.313314 
-14.391300 -13.418100 0.326072 
-14.076700 -13.477400 0.333983 
-12.330000 -13.674300 0.338434 
-12.670800 -13.640700 0.355038 
-10.969100 -14.621700 0.509307 
-11.571900 -14.548800 1.187080 
-10.219200 -14.544600 1.561630 
-10.205100 -14.562000 1.678330 
-10.009400 -14.520400 1.752260 
-14.461800 -13.694100 -1.087630 
-14.430300 -13.749200 -0.577705 
-11.280100 -14.598100 0.135245 
-12.561400 -13.654900 0.337607 
-11.062600 -14.615000 0.429398 
-11.554600 -14.567400 0.675836 
-11.076800 -14.586100 0.673291 
-11.106600 -14.552600 1.368310 
-12.481800 -13.675000 0.337274 
-11.288800 -14.590100 0.651678 
-13.616000 -13.438400 0.637207 
-13.560000 -13.488200 0.692948 
-11.754200 -14.518100 1.129270 
-11.140500 -14.601100 1.188990 
-11.138800 -14.578100 1.339940 
-11.960700 -13.650000 1.455680 
-11.053700 -14.610600 -0.970682 
-11.317000 -14.553300 0.081896 
-11.544800 -14.568600 0.904558 
-11.300000 -14.556600 1.283400 
-10.563400 -14.515100 1.661760 
-11.540700 -14.592400 1.147150 
-14.504600 -13.934000 -0.647491 
-13.280000 -14.035700 -0.541631 
-13.099400 -11.922300 1.491880 
-11.786000 -14.536700 -3.005970 
-10.956800 -14.631700 -2.981260 
-16.775101 -13.903900 -2.880550 
-13.679100 -13.574500 -2.240570 
-11.978300 -14.517800 -2.549150 
-10.514100 -14.681600 -2.579330 
-12.676200 -14.417300 -2.496610 
-11.011300 -14.628200 -1.936890 
-14.751000 -13.578000 -1.292070 
-14.936300 -13.631700 -1.039850 
-12.420500 -14.450100 -1.298580 
-13.826800 -13.777600 -1.019300 
-12.179000 -14.514100 -1.309980 
-11.247400 -14.613500 -1.298920 
-15.692500 -13.758200 -0.644791 
-11.898000 -14.514800 -1.119580 
-13.190200 -14.053700 -0.613862 
-13.254400 -13.929700 -0.530761 
-14.845900 -13.652600 -0.168022 
-11.935300 -14.516600 -0.650864 
-14.102100 -13.652000 -0.175825 
-13.759800 -13.797700 -0.176776 
-11.411200 -14.574500 -0.400469 
-12.479500 -13.983000 -0.141575 
-11.427600 -14.585100 -0.368988 
-12.356900 -13.994700 -0.125384 
-13.752500 -13.515500 0.419489 
-10.484900 -14.680400 -0.171338 
-13.530800 -13.537600 0.574156 
-10.779600 -14.653600 0.137791 
-11.846100 -14.515800 0.420738 
-13.163400 -11.901200 1.066750 
-12.681400 -13.622700 1.027930 
-12.836800 -12.344100 1.210340 
-11.568600 -14.554800 1.240620 
-11.611800 -14.526500 1.351300 
-10.616800 -14.653500 1.246710 
-10.528100 -14.679900 1.257630 
-13.569900 -13.429300 -2.927510 
-13.970000 -13.412400 -2.799500 
-12.212600 -14.473800 -2.672090 
-16.001101 -13.963900 -2.516800 
-15.597000 -13.720500 -1.631910 
-12.830000 -14.415100 -1.586840 
-13.386100 -14.041500 -0.825163 
-13.184700 -14.007100 -0.446148 
-14.066300 -13.674700 -0.215904 
-15.017600 -13.650800 -0.028562 
-14.308300 -13.429900 0.326222 
-14.112200 -13.471400 0.333134 
-12.012800 -14.510000 -0.133461 
-10.424900 -14.690100 -0.402626 
-13.559700 -13.650500 0.276424 
-13.517300 -13.533700 0.514418 
-11.667500 -14.542700 0.239404 
-13.069800 -12.026000 0.922492 
-11.141000 -14.618200 0.459965 
-13.117200 -11.998400 1.034790 
