-8.912050 -16.347900 1.229500 
-8.234990 -16.291901 1.291430 
-13.741800 -16.600100 -2.892090 
-13.144200 -16.017799 -2.157370 
-12.821800 -16.258101 -1.731380 
-10.269300 -16.419100 -3.341540 
-12.040400 -16.025299 -1.851520 
-11.921600 -16.164101 -1.429330 
-12.458200 -16.026501 -0.983489 
-11.874300 -15.996100 -1.322630 
-11.432300 -15.968700 -1.396870 
-12.842600 -16.261400 -0.105512 
-12.419400 -16.036100 -0.322933 
-11.163500 -15.977200 -0.957835 
-12.225700 -16.035801 -0.138091 
-12.381700 -15.861800 0.251852 
-11.437600 -15.868600 -0.251874 
-11.165000 -15.982500 -0.444312 
-10.694800 -16.069300 -0.571368 
-12.342500 -15.629600 0.683435 
-10.924800 -16.149300 -0.128122 
-10.517600 -16.109600 -0.418647 
-11.442800 -15.703800 0.337208 
-8.555290 -16.336901 -0.156935 
-8.491970 -16.337799 0.643874 
-8.282580 -16.297001 0.718616 
-7.459610 -16.094601 1.735930 
-13.489600 -16.584400 -2.986360 
-13.490100 -16.560600 -2.904690 
-13.194100 -16.062500 -2.123280 
-12.428700 -15.826900 -2.262130 
-13.002400 -16.259001 -1.351880 
-9.180860 -16.365999 -2.513540 
-11.872000 -15.727400 -0.374074 
-12.089700 -15.918200 -0.212739 
-9.208790 -16.368500 -0.414396 
-8.530000 -16.308500 1.170800 
-12.709000 -15.934700 -2.244490 
-11.492700 -15.758400 -2.232520 
-11.907800 -16.015600 -1.280340 
-10.877000 -16.153299 -1.469200 
-11.556900 -15.699000 0.516637 
-10.726800 -16.142200 -1.260970 
-10.668900 -14.223600 1.209540 
-8.795040 -16.320000 1.211440 
-12.891700 -16.239599 -0.379312 
-10.658900 -16.169300 -1.060620 
-10.288000 -16.142401 -0.208396 
-8.613860 -16.349100 -0.270933 
-12.629200 -16.133400 -1.246570 
-10.970300 -15.909600 -2.212150 
-10.005600 -15.892800 0.122141 
-12.935200 -16.230700 -1.425910 
-12.123500 -16.039600 -0.917170 
-11.835600 -15.999100 -0.917218 
-14.141200 -16.613300 -2.826310 
-13.715500 -16.595301 -2.802890 
-13.729500 -16.597700 -2.532830 
-13.509600 -16.560900 -1.651660 
-13.131400 -16.074301 -1.927070 
-12.984100 -16.216000 -1.631430 
-12.109900 -15.805500 -2.993850 
-12.470000 -16.044600 -0.576299 
-11.643600 -15.839700 -2.551660 
-12.286100 -16.037201 -0.711108 
-12.039900 -16.024599 -1.070650 
-11.844100 -15.971800 -1.311000 
-11.420800 -15.770400 -2.252630 
-12.302400 -15.744900 0.520035 
-11.416200 -15.765900 -2.198340 
-11.827200 -16.031200 -0.602506 
-11.772800 -13.971900 1.156730 
-11.368900 -15.984600 -0.742480 
-11.524700 -13.960000 0.973768 
-10.336800 -16.432199 -3.335640 
-10.817800 -16.153999 -1.736860 
-11.125600 -15.976100 -0.716804 
-11.278300 -15.983400 -0.196514 
-10.649000 -16.105101 -1.384580 
-11.167400 -15.688700 0.376864 
-10.201500 -16.420000 -2.769940 
-10.196600 -16.422501 -2.750010 
-11.221500 -13.945700 1.083600 
-11.146700 -15.686300 0.378994 
-10.787000 -16.155001 -0.763588 
-10.066200 -16.415300 -2.905650 
-11.120200 -13.949200 1.149390 
-10.609400 -16.012899 -0.476601 
-10.695200 -16.152901 -0.223788 
-9.762950 -16.406099 -2.981950 
-9.684210 -16.399099 -2.653510 
-9.621570 -16.384399 -2.501690 
-9.610920 -16.383801 -2.487800 
-9.855710 -16.398899 -1.546280 
-9.691190 -16.398300 -1.222350 
-9.958290 -15.850400 0.135215 
-9.933370 -15.850200 0.093393 
-9.842010 -15.622000 0.352818 
-8.948310 -16.353500 -0.170690 
-13.988100 -16.596500 -2.260180 
-13.739200 -16.594200 -2.646570 
-13.468300 -16.586700 -3.048540 
-13.447100 -16.590599 -2.972450 
-12.576100 -15.872800 -2.367140 
-12.580700 -15.887300 -2.333060 
-12.374900 -15.851600 -2.196510 
-12.341000 -15.834700 -2.233620 
-12.975100 -16.269800 -0.187110 
-11.714300 -15.779200 -3.001520 
-11.990800 -16.031000 -1.100610 
-11.906800 -15.986400 -1.301710 
-11.408300 -15.761100 -2.265220 
-12.062000 -15.863100 -0.226440 
-11.969100 -15.779600 -0.276328 
-11.928100 -15.786900 -0.409756 
-11.334800 -15.775900 -1.983500 
-11.053900 -15.744000 -2.295390 
-11.801100 -13.966400 1.167400 
-11.658600 -13.964500 1.303270 
-11.289500 -15.994800 -0.305336 
-11.212300 -15.988000 -0.343015 
-10.469300 -15.789900 -2.158410 
-11.251900 -15.692500 0.345487 
-11.111600 -15.984200 -0.019337 
-10.889000 -16.158701 -0.421039 
-9.923330 -16.406401 -3.249030 
-11.073500 -13.936500 1.064750 
-9.804980 -16.405300 -3.201630 
-10.582900 -16.117701 -0.619643 
-10.607400 -16.017099 -0.514950 
-10.285500 -16.096600 -1.007470 
-9.989870 -16.436199 -1.888990 
-10.968700 -13.904000 1.408830 
-9.778600 -16.406401 -2.356050 
-10.328700 -16.141100 -0.103334 
-10.308500 -16.134199 -0.084041 
-9.747620 -16.397699 -1.802890 
-9.849370 -16.394699 -1.353140 
-9.991190 -16.126101 -0.291585 
-9.025350 -16.369301 -3.228950 
-9.280250 -16.400000 -2.219920 
-9.495580 -16.384100 -1.544840 
-9.081200 -16.375799 -2.674970 
-9.936300 -15.844800 0.115625 
-9.706820 -15.920000 -0.536509 
-9.024160 -16.371099 -2.208250 
-8.547430 -16.338600 -2.512170 
-9.174000 -16.363501 -0.436828 
-9.171960 -16.379101 -0.382129 
-8.915500 -16.359501 -0.319878 
-8.639310 -16.348801 -1.092630 
-8.483860 -16.347500 -1.014350 
-8.493680 -16.335100 -0.725476 
-8.943810 -16.343399 1.329400 
-13.970600 -16.598801 -2.266660 
-13.741300 -16.592400 -2.607700 
-13.173900 -15.959800 -2.193080 
-13.212800 -16.579599 -2.535040 
-12.421900 -15.818100 -2.209660 
-12.668400 -15.896300 -1.316440 
-12.412800 -15.873000 -2.082310 
-12.225000 -15.807700 -2.295870 
-12.356800 -15.840700 -1.995780 
-12.098200 -16.013800 -1.895260 
-12.482500 -16.048000 -0.198612 
-12.314900 -16.037399 -0.463533 
-12.100500 -16.015100 -0.946078 
-11.386200 -15.765500 -2.221640 
-11.912400 -15.729100 -0.238301 
-11.541600 -15.997200 -1.528230 
-11.939500 -15.882700 -0.150469 
-11.236500 -15.790800 -2.150750 
-11.728800 -15.764900 -0.248072 
-11.457600 -13.960000 1.253290 
-9.892520 -16.409800 -2.898110 
-9.969470 -16.416201 -1.920330 
-9.695340 -16.406200 -2.594890 
-9.617260 -16.393900 -2.460470 
-9.710130 -15.924100 -0.155079 
-9.727420 -15.923400 -0.103139 
-9.704710 -15.914100 -0.130155 
-8.486910 -16.353701 -2.634880 
-9.128160 -16.360300 -0.652570 
-9.249450 -16.370600 -0.104139 
-8.611530 -16.333900 -1.584110 
-8.890570 -16.349001 -0.296943 
-8.451910 -16.337099 -1.282300 
-7.993830 -16.308300 -2.681120 
-7.973130 -16.299700 -2.609480 
-8.467400 -16.334801 -1.026830 
-8.673230 -16.316099 0.088386 
-8.038230 -16.315800 -0.932818 
-8.429710 -16.301901 0.563974 
-7.873350 -16.292801 0.904573 
-14.119400 -16.610201 -2.874740 
-13.873900 -16.609800 -2.493980 
-13.466900 -16.589100 -3.087110 
-13.149600 -16.561100 -2.572090 
-12.473400 -16.024401 -0.979392 
-11.859500 -16.125900 -1.445380 
-11.539300 -15.989000 -1.857260 
-11.584900 -15.995100 -1.614940 
-11.158700 -15.816500 -2.105150 
-11.661900 -15.713500 0.391014 
-11.215000 -15.977900 -0.573045 
-10.942900 -15.850400 0.239811 
-10.784300 -16.159201 -0.106038 
-10.562500 -14.330600 1.002880 
-9.554900 -16.382500 -1.465950 
-9.025700 -16.361099 -2.124840 
-9.579940 -15.588900 0.967020 
-9.628050 -15.579800 1.176450 
-8.972470 -16.360800 0.167511 
-8.918180 -16.347200 1.231810 
-8.044070 -16.301201 -1.327530 
-8.363810 -16.330000 0.730600 
-8.295870 -16.313200 0.714630 
-7.886980 -16.301001 0.718333 
-7.836900 -16.273399 1.279010 
-13.528300 -16.567101 -3.000990 
-13.490200 -16.568701 -2.978170 
-12.065400 -16.016899 -1.886270 
-12.336600 -16.033800 -0.979475 
-12.611400 -16.043100 0.033930 
-11.197000 -15.771400 -2.275090 
-11.173800 -15.980100 -0.918164 
-11.021000 -15.682200 0.504477 
-10.870200 -14.041100 1.050910 
-9.786520 -16.394300 -1.590320 
-9.773300 -15.757600 -0.928445 
-9.780890 -15.759800 -0.890789 
-9.193360 -16.364700 0.153619 
-8.950540 -16.337799 0.320010 
-8.975630 -16.329599 1.137390 
-8.438880 -16.322901 0.664140 
-7.960680 -16.281799 -0.307202 
-7.859020 -16.286900 0.763541 
-7.490100 -16.095900 1.563950 
-12.825100 -16.029800 -2.282310 
-11.625600 -15.715500 0.358093 
-11.304500 -15.982600 -0.705678 
-11.244500 -15.981500 -0.364466 
-11.105800 -13.941300 1.281240 
-10.111900 -15.637000 0.479757 
-8.658230 -16.334499 -1.612090 
-8.896900 -16.355900 -0.273304 
-8.914790 -16.361099 0.121735 
-8.068630 -16.313601 -0.914041 
-7.812920 -16.129601 1.692890 
-13.661900 -16.603901 -2.794360 
-13.160400 -16.081499 -1.575920 
-12.811500 -16.075199 -2.172930 
-11.541800 -16.030600 -1.484210 
-11.425600 -15.987100 -0.682603 
-11.505500 -15.871600 -0.248791 
-8.420680 -16.320000 -0.373434 
-11.987400 -16.036600 -1.143690 
-11.898600 -15.969000 -1.125080 
-11.137000 -15.781000 -2.281940 
-7.477900 -16.087299 1.626120 
-11.523300 -15.926200 -0.064751 
-7.382830 -16.131500 1.725690 
-11.985600 -16.072399 -1.607270 
-11.208300 -15.886500 -1.467170 
-11.312600 -15.681600 0.398459 
-12.395400 -15.893600 -1.651040 
-12.393500 -15.951500 -1.467740 
-11.914600 -16.008200 -1.791320 
-12.274700 -16.041599 -1.308400 
-11.113600 -15.851800 -1.829200 
-10.613900 -15.927000 -1.987300 
-11.908400 -13.976500 1.171480 
-13.876600 -16.591499 -2.422230 
-13.737800 -16.594999 -2.672740 
-13.228800 -15.895800 -2.175650 
-11.526400 -13.960700 1.148370 
-11.559100 -13.964000 0.940548 
-13.443600 -16.584801 -3.089240 
-12.308600 -16.039700 -0.451069 
-13.123500 -16.563700 -2.775240 
-11.221200 -13.948100 1.083550 
-11.984400 -15.787800 -0.271729 
-11.902800 -15.719900 -0.230916 
-11.902700 -15.718800 -0.368034 
-11.078100 -13.941400 1.133520 
-11.896200 -15.767600 -0.427284 
-11.393600 -15.702700 0.516979 
-11.383700 -15.699700 0.506222 
-11.557700 -15.864900 -0.226321 
-11.890900 -15.995900 -1.276030 
-11.220000 -15.987400 -0.056144 
-10.841600 -15.669600 0.494481 
-11.193800 -15.985800 -0.706777 
-10.591000 -15.661700 0.513093 
-11.648400 -15.777300 -2.990690 
-10.651500 -16.014299 -0.477160 
-10.357200 -15.646800 0.410380 
-10.359200 -15.651900 0.384682 
-10.225800 -15.637600 0.313204 
-10.548400 -15.929400 -1.918450 
-10.362900 -16.421700 -2.739360 
-10.290200 -16.424200 -2.910840 
-8.973210 -16.336000 1.177430 
-9.962550 -16.390499 -2.146190 
-10.058900 -16.406200 -3.047690 
-9.963120 -16.402100 -2.906700 
-8.609710 -16.307899 1.055840 
-8.521970 -16.304800 1.062450 
-9.195820 -16.369699 -1.715110 
-9.399000 -16.381599 -2.857060 
-8.433270 -16.323400 -0.600300 
-11.966000 -13.979400 1.130530 
-13.068100 -16.156700 -0.463500 
-11.869800 -13.974300 1.074790 
-13.048700 -16.159201 -0.456333 
-11.770800 -13.970400 1.157710 
-13.087100 -16.265200 -0.941116 
-12.463800 -15.752200 0.388335 
-13.736600 -16.588900 -2.643050 
-12.991200 -16.257099 -0.814023 
-12.981500 -16.263100 -0.792041 
-13.706000 -16.592501 -2.823880 
-12.545900 -16.045601 -0.223134 
-11.461400 -13.956600 1.076460 
-13.446300 -16.591200 -2.975760 
-12.322000 -16.039200 -0.219956 
-12.831000 -16.046600 -2.288730 
-11.651900 -15.709800 0.385683 
-11.084700 -13.941100 1.144680 
-11.061700 -13.940100 1.106030 
-11.329800 -15.985000 -0.743031 
-11.187100 -15.980300 -0.458431 
-11.844300 -15.848200 -2.547260 
-11.487300 -15.988100 -1.674980 
-11.203300 -15.947200 -1.037880 
-10.952900 -16.166201 -0.390694 
-10.622300 -15.663600 0.537787 
-11.105300 -15.968000 -0.984690 
-10.897400 -16.162399 -0.401573 
-10.683800 -16.158501 -0.076017 
-11.342400 -15.774500 -2.219780 
-11.268900 -15.749200 -2.236790 
-10.664100 -16.021400 -0.517626 
-10.763700 -16.150600 -0.820692 
-10.608700 -16.012699 -0.476420 
-10.909100 -16.099600 -1.516670 
-10.530500 -16.109100 -0.584018 
-10.261200 -16.094801 -0.766663 
-9.947080 -15.840300 0.140052 
-9.707530 -15.920700 -0.535274 
-10.069900 -16.412901 -1.882700 
-9.956380 -16.408899 -1.845310 
-9.859390 -16.400801 -1.569720 
-10.195600 -16.421200 -2.743270 
-8.936910 -16.333099 1.350550 
-9.839890 -16.416401 -2.203210 
-9.042700 -16.341000 0.237209 
-9.751250 -16.394400 -2.414220 
-9.862520 -16.408899 -2.898800 
-9.736780 -16.401699 -3.186630 
-8.959180 -16.350599 -0.811321 
-8.492960 -16.315500 -0.161574 
-9.259290 -16.383301 -3.041860 
-8.292510 -16.300800 0.257835 
-8.886430 -16.360399 -1.898380 
-7.785380 -16.130400 1.689560 
-8.227340 -16.300900 0.025190 
-8.922610 -16.362200 -2.445770 
-7.862210 -16.288300 0.722723 
-7.988780 -16.302299 -0.273358 
-8.493830 -16.342600 -2.673130 
-8.469370 -16.341700 -3.258010 
-8.096480 -16.306400 -3.011840 
-13.067600 -16.223600 -0.629311 
-13.742500 -16.587999 -2.602670 
-12.934700 -16.239201 -0.602426 
-13.683500 -16.580099 -3.061110 
-13.193800 -15.962000 -2.137090 
-13.449900 -16.591101 -2.949680 
-13.429100 -16.597200 -2.927170 
-12.213500 -16.037901 -0.230927 
-12.388300 -16.008900 -1.059230 
-12.298300 -16.025600 -1.003130 
-11.966000 -15.857700 -0.183733 
-11.071600 -13.938800 1.165090 
-12.533200 -15.843800 -2.198090 
-12.376200 -15.858600 -2.170510 
-12.111000 -16.030701 -1.582090 
-12.024400 -16.022400 -1.662450 
-11.868100 -16.142099 -1.444730 
-11.348800 -15.987100 -0.201171 
-11.205500 -15.984500 -0.201063 
-11.546800 -15.882200 -1.295060 
-11.650600 -16.004000 -1.661970 
-11.500100 -15.989300 -1.535980 
-11.205800 -15.982000 -0.749786 
-11.242300 -15.769100 -2.170870 
-11.209400 -15.771000 -2.202810 
-10.658300 -16.102900 -0.598077 
-10.660500 -16.132799 -0.628703 
-10.388100 -16.142200 -0.718170 
-10.390900 -16.134600 -0.771863 
-10.100300 -16.417200 -1.887720 
-9.840750 -16.398800 -1.317400 
-10.266100 -16.414600 -2.757960 
-9.968250 -16.420401 -1.881020 
-9.946810 -16.410900 -1.883050 
-10.163500 -16.418600 -2.974640 
-9.189980 -16.356501 0.014178 
-9.158630 -16.362200 -0.399072 
-9.557120 -16.385700 -1.944640 
-8.728020 -16.303301 0.184596 
-8.292560 -16.297701 1.157800 
-8.830800 -16.356501 -0.684473 
-8.321640 -16.299700 1.040610 
-8.885090 -16.360901 -1.391410 
-9.273350 -16.391701 -2.909000 
-9.031490 -16.364500 -2.174150 
-8.458740 -16.299000 -0.203437 
-9.284280 -16.390100 -3.049690 
-8.227790 -16.302900 0.509095 
-7.869650 -16.299801 0.909384 
-8.651800 -16.350100 -1.834800 
-8.058400 -16.301300 0.176657 
-8.483700 -16.336000 -1.311030 
-8.674290 -16.360500 -2.264970 
-8.554030 -16.340401 -1.914370 
-8.788470 -16.350901 -3.179770 
-8.768700 -16.350800 -3.181090 
-8.042100 -16.298201 -1.322830 
-7.992860 -16.306801 -2.718200 
-14.184900 -16.596100 -2.890890 
-14.128900 -16.618799 -2.824440 
-12.958700 -16.243900 -1.190730 
-12.351900 -15.844800 0.243360 
-12.519700 -16.049801 -0.206707 
-12.473100 -16.048201 -0.186620 
-13.461000 -16.578100 -3.010090 
-13.418800 -16.581100 -3.022520 
-12.506000 -16.057699 -0.701994 
-12.379500 -16.052799 -0.456000 
-12.454900 -16.045200 -0.788832 
-13.148800 -16.563299 -2.574920 
-11.919900 -15.720800 0.364731 
-11.837800 -15.759400 -0.416597 
-11.985600 -16.042400 -1.269530 
-12.084800 -16.031700 -1.618050 
-12.108600 -16.007601 -1.911840 
-11.395300 -15.987500 -0.453354 
-11.304300 -15.986900 -0.191268 
-11.372900 -15.986200 -0.919877 
-10.943800 -15.834700 0.244908 
-11.183900 -15.979200 -0.529739 
-10.784000 -15.669600 0.519388 
-11.897000 -15.792400 -2.973330 
-10.863200 -16.153000 -0.907192 
-11.186800 -15.787800 -2.162300 
-9.955110 -15.774700 0.250525 
-9.628670 -15.587100 1.218880 
-10.172700 -16.415400 -2.779290 
-9.811310 -16.413300 -2.388480 
-9.052470 -16.367901 -0.148774 
-9.154680 -16.359900 -0.603357 
-8.902910 -16.347900 -0.189004 
-8.581510 -16.331200 0.414909 
-9.186110 -16.372101 -1.678790 
-8.266420 -16.314301 0.823194 
-8.517000 -16.325701 -0.165157 
-8.574450 -16.335199 -0.777921 
-8.630600 -16.345501 -1.007970 
-8.607190 -16.334999 -1.001680 
-8.078240 -16.296499 0.085822 
-13.077500 -16.268900 -0.885802 
-12.986800 -16.204500 -1.147320 
-12.107800 -15.727700 0.540858 
-13.496600 -16.570801 -2.983460 
-13.461400 -16.586700 -3.085260 
-12.819300 -16.252600 -1.484900 
-11.669400 -15.711700 0.384311 
-11.978100 -16.072701 -1.632120 
-11.304200 -15.989200 -0.325562 
-11.242700 -15.976900 -0.203377 
-11.339800 -15.992100 -0.701156 
-11.167800 -15.988800 -0.286469 
-11.358800 -15.982300 -0.974730 
-10.811400 -15.670900 0.540076 
-10.700500 -16.155899 -0.860063 
-9.588720 -15.585800 1.198690 
-10.004700 -16.123100 -0.295692 
-9.718850 -15.616500 0.383913 
-10.208300 -16.420601 -2.797750 
-9.153500 -16.366899 0.147736 
-9.561680 -16.388100 -1.577270 
-8.806540 -16.336599 0.781186 
-8.228400 -16.310801 0.691457 
-9.104270 -16.376499 -2.743100 
-9.166770 -16.369900 -3.199330 
-9.133970 -16.368500 -3.134030 
-8.680100 -16.341101 -1.609750 
-7.895050 -16.292801 0.721418 
-7.810920 -16.272499 0.903819 
-7.993410 -16.279600 -0.098880 
-7.948530 -16.282700 -0.140499 
-7.966680 -16.277300 -0.210826 
-7.973380 -16.306601 -2.543590 
-13.894800 -16.604799 -2.914210 
-13.115400 -16.086800 -1.933010 
-12.469500 -16.045200 -0.260644 
-12.480200 -16.038700 -0.929302 
-12.432000 -16.026600 -0.989473 
-11.300500 -15.986900 -0.494553 
-11.262700 -15.962500 -0.986942 
-11.386500 -15.762700 -2.202780 
-11.144900 -15.838400 -2.680770 
-9.867050 -15.917800 0.042009 
-9.628990 -15.786200 -0.876385 
-8.939140 -16.343100 0.260743 
-8.923690 -16.338699 0.040459 
-9.722270 -16.417601 -2.927420 
-8.382830 -16.329500 0.676196 
-8.573190 -16.325800 -1.166520 
-8.641650 -16.338200 -1.686000 
-8.039880 -16.321501 -0.342953 
-12.127500 -16.065599 -1.493190 
-11.921200 -16.010799 -1.909550 
-11.169400 -15.783500 -2.191890 
-7.994950 -16.303101 -0.256376 
-11.930400 -16.054899 -0.596027 
-11.885300 -15.994600 -1.952010 
-11.454500 -15.768400 -2.304030 
-9.058010 -16.359699 -1.020950 
-11.736300 -16.037901 -1.107110 
-11.414200 -15.991400 -0.824675 
-10.866100 -15.684700 0.353808 
-10.847600 -16.158899 -0.468253 
-10.813100 -16.136000 -0.894266 
-9.922690 -16.007000 -0.028584 
-10.144000 -15.933900 -1.221710 
-11.868300 -16.007999 -1.876610 
-11.656100 -15.985500 -1.890610 
-11.427900 -13.953500 1.289080 
-11.458600 -13.959100 1.263580 
-11.539500 -13.960900 1.063340 
-11.101900 -13.942200 1.270790 
-11.558300 -13.963800 0.940098 
-11.313700 -13.952000 0.924803 
-12.510500 -15.756100 0.400293 
-11.889200 -15.717800 0.390933 
-11.861700 -15.721600 0.402249 
-11.892100 -15.724500 0.371187 
-13.047200 -16.156200 -0.472733 
-12.099500 -15.918500 -0.185363 
-11.249900 -15.693000 0.378161 
-10.749400 -15.668900 0.479092 
-12.426600 -16.028099 -0.767787 
-13.215100 -16.228001 -1.327100 
-11.545700 -15.861400 -0.206815 
-13.033700 -16.220600 -1.377660 
-13.030600 -16.181801 -1.441060 
-11.290300 -15.995200 -0.310853 
-11.300000 -15.990500 -0.329412 
-10.097600 -15.640200 0.518335 
-14.114400 -16.615700 -2.558320 
-11.764700 -16.049101 -0.918851 
-12.933200 -16.214399 -1.834680 
-11.369900 -15.983300 -0.734967 
-12.034100 -16.064800 -1.237490 
-11.928800 -16.006599 -1.282710 
-11.910200 -16.000401 -1.281190 
-11.899100 -15.990700 -1.292990 
-13.936100 -16.601801 -2.859360 
-8.864650 -16.335800 0.876018 
-10.725000 -16.068800 -0.526772 
-9.846550 -15.925900 -0.064243 
-13.620300 -16.582899 -2.919160 
-8.005520 -16.292801 1.175590 
-13.531400 -16.570101 -2.971430 
-9.747850 -15.924800 -0.120375 
-12.636000 -15.837000 -2.271130 
-13.108500 -16.558701 -2.828320 
-13.130300 -16.559299 -2.840810 
-10.428400 -16.137100 -0.785107 
-10.226500 -16.094900 -0.681479 
-12.235200 -15.816900 -2.267470 
-9.013240 -16.337999 0.052127 
-12.309000 -15.868600 -2.552160 
-10.688100 -16.111700 -1.407690 
-10.696600 -16.124100 -1.455530 
-8.896670 -16.355101 -0.306770 
-11.424700 -15.769400 -2.252740 
-10.858200 -16.110399 -1.939960 
-10.872700 -16.107300 -1.954470 
-8.701170 -16.338699 -0.403321 
-12.107200 -15.808400 -2.991210 
-12.085400 -15.805700 -2.986210 
-10.124000 -16.421400 -1.877270 
-9.058000 -16.370300 -1.601180 
-10.573800 -16.433599 -3.325460 
-10.158100 -16.414301 -3.040450 
-8.844390 -16.362801 -2.753180 
-8.071630 -16.299801 -3.008920 
-11.434600 -13.865800 1.666380 
-11.875300 -13.978000 1.144980 
-11.758300 -13.967900 1.143480 
-11.907400 -13.977800 1.042760 
-11.529900 -13.961100 1.146740 
-11.522900 -13.960400 0.978309 
-11.123400 -13.944300 1.145590 
-11.071900 -13.940300 1.153720 
-11.083700 -13.940900 1.142470 
-11.056000 -13.937500 1.157320 
-12.492300 -15.759100 0.499111 
-12.211500 -15.736600 0.509093 
-12.116800 -15.723700 0.517675 
-12.286600 -15.736900 0.398573 
-11.855100 -15.715500 0.294763 
-12.373200 -16.042700 -0.075478 
-11.453200 -15.697000 0.509817 
-12.771700 -16.252701 -0.394573 
-12.757900 -16.250601 -0.419010 
-12.365800 -16.042000 -0.216617 
-13.381700 -16.244900 -1.077640 
-12.759600 -16.252899 -0.652218 
-13.029300 -16.270700 -0.864680 
-13.372500 -16.255400 -1.119760 
-11.957800 -15.872200 -0.155806 
-12.010600 -15.844700 -0.198328 
-12.411600 -16.034599 -0.740477 
-12.374500 -16.032200 -0.744995 
-12.327300 -16.033899 -0.747062 
-9.659280 -15.601600 1.092780 
-11.520600 -15.867900 -0.262837 
-10.519000 -15.655100 0.403696 
-12.984800 -16.233101 -1.360800 
-10.530400 -15.659400 0.375935 
-11.175400 -15.983700 -0.191913 
-13.057300 -16.162001 -1.630110 
-10.225800 -15.638900 0.314123 
-13.915500 -16.599199 -2.398100 
-8.922630 -16.331100 1.146940 
-10.726100 -16.151800 -0.230586 
-13.711200 -16.593500 -2.560260 
-11.302500 -15.978600 -0.863551 
-10.720000 -16.073400 -0.441424 
-12.775600 -16.201000 -1.965050 
-8.604670 -16.307100 1.058400 
-10.644100 -16.036200 -0.443331 
-13.945000 -16.587601 -2.972580 
-10.614200 -16.009800 -0.510862 
-13.781700 -16.606400 -2.881230 
-8.486900 -16.305500 1.031730 
-13.774300 -16.583900 -2.947990 
-8.747040 -16.328501 0.757610 
-8.626880 -16.318300 0.799917 
-8.031140 -16.278000 1.190600 
-13.453800 -16.562099 -2.865240 
-13.539600 -16.579300 -2.933020 
-13.575800 -16.576000 -3.065040 
-13.442500 -16.590799 -2.973150 
-11.688500 -16.002600 -1.631470 
-12.528400 -15.859500 -2.249620 
-8.959970 -16.346901 0.350938 
-13.135300 -16.553801 -2.824060 
-9.086030 -16.341200 0.180840 
-8.417970 -16.300800 0.651037 
-8.406420 -16.298599 0.642679 
-11.662600 -15.999000 -1.934660 
-8.688590 -16.325600 0.126391 
-8.945510 -16.365601 -0.169334 
-8.379120 -16.304300 0.236083 
-8.881230 -16.350401 -0.159970 
-8.858780 -16.342199 -0.160898 
-9.125720 -16.359100 -0.392437 
-9.125660 -16.355400 -0.480280 
-11.342100 -15.775500 -2.178920 
-8.507470 -16.319201 -0.148555 
-8.471390 -16.319799 -0.132905 
-11.249300 -15.753700 -2.205260 
-10.270800 -16.435499 -2.862790 
-8.690330 -16.336100 -1.639600 
-9.905880 -16.407000 -2.872140 
-10.262800 -16.417900 -3.243130 
-9.732870 -16.411900 -2.918000 
-9.630300 -16.394600 -3.011000 
-12.316400 -15.743800 0.377150 
-12.953400 -16.270100 -0.202324 
-10.518400 -14.373800 1.087390 
-11.926100 -15.719800 0.325560 
-11.889300 -15.718200 0.348738 
-11.553500 -15.699200 0.510721 
-12.961800 -16.236099 -0.611740 
-11.212400 -15.700600 0.420603 
-13.126900 -16.271601 -0.973320 
-11.935000 -15.855100 -0.193280 
-10.946500 -15.685600 0.358202 
-11.517300 -15.954200 -0.042966 
-13.168500 -16.233200 -1.340780 
-11.226500 -15.986300 -0.084176 
-11.269800 -15.985400 -0.165245 
-13.466100 -16.567600 -1.802230 
-10.869700 -16.158501 -0.138861 
-8.717470 -16.318800 1.339710 
-8.649340 -16.318600 1.342250 
-10.715900 -16.152700 -0.240989 
-10.555300 -16.148701 -0.211508 
-14.126800 -16.615700 -2.850180 
-10.760400 -16.136101 -0.528421 
-10.589600 -16.021299 -0.492757 
-10.652400 -16.126600 -0.606307 
-9.874500 -15.916000 -0.052328 
-8.729170 -16.323799 0.750027 
-9.871870 -15.925600 -0.074098 
-9.836610 -15.936500 -0.092327 
-12.508800 -15.874900 -2.077220 
-12.129800 -16.007900 -1.837540 
-10.006900 -16.120100 -0.301356 
-8.994410 -16.368401 0.364799 
-10.240700 -16.099300 -0.703872 
-8.631240 -16.338499 0.457215 
-8.185020 -16.298500 0.731571 
-7.784140 -16.274200 1.021500 
-7.934760 -16.287800 0.843629 
-11.643200 -15.989900 -1.945150 
-8.909820 -16.368401 -0.150836 
-12.068400 -15.870700 -2.517160 
-11.995800 -15.860200 -2.566860 
-8.971550 -16.359600 -0.367422 
-7.796160 -16.282400 0.523748 
-11.849900 -15.855300 -2.513020 
-11.201000 -15.773000 -2.090440 
-8.038330 -16.281000 0.165919 
-8.161060 -16.291800 0.056442 
-8.564350 -16.331900 -0.286440 
-9.853430 -16.396700 -1.365020 
-8.367900 -16.315500 -0.322457 
-9.861660 -16.396601 -1.548960 
-10.086700 -16.413900 -1.859560 
-9.272710 -16.386499 -1.293250 
-9.520240 -16.386801 -1.545680 
-8.456670 -16.328400 -0.718809 
-8.791910 -16.337099 -1.029040 
-9.918590 -16.399300 -1.933510 
-7.910020 -16.279800 -0.774026 
-9.814580 -16.413099 -2.400540 
-10.224800 -16.411200 -2.729720 
-9.596750 -16.394400 -2.333120 
-9.578650 -16.382700 -2.429810 
-9.687410 -16.406099 -2.561140 
-10.046900 -16.410400 -2.876380 
-8.275380 -16.346701 -1.940580 
-9.802710 -16.394899 -3.215380 
-8.229550 -16.322001 -1.979990 
-8.561200 -16.338200 -2.545680 
-7.964360 -16.313801 -3.231050 
-12.080000 -15.728800 0.567942 
-12.466800 -16.046700 -0.041625 
-12.415200 -16.050100 -0.032243 
-12.929300 -16.231300 -0.390980 
-11.667000 -15.707400 0.378386 
-10.982700 -15.675000 0.523898 
-12.348600 -16.037600 -0.447643 
-12.416600 -16.046900 -0.559669 
-12.492600 -16.046801 -0.605763 
-11.680300 -15.851500 -0.374200 
-11.182000 -15.983800 -0.222471 
-8.841980 -16.322300 1.214180 
-12.997900 -16.185499 -1.849050 
-11.307500 -15.982100 -0.713833 
-13.195900 -15.971400 -2.142260 
-10.332300 -16.144400 -0.064491 
-10.759300 -16.130301 -0.481640 
-11.428200 -15.989800 -0.987613 
-10.752100 -16.119301 -0.560250 
-10.705400 -16.131500 -0.617493 
-10.614400 -16.128901 -0.606486 
-11.930200 -16.011999 -1.709080 
-12.428200 -15.866400 -2.110860 
-13.406100 -16.593901 -2.923770 
-13.563400 -16.578400 -3.083270 
-13.500600 -16.584299 -3.059740 
-10.453100 -16.138399 -0.813533 
-12.570900 -15.863900 -2.396880 
-12.359400 -15.832300 -2.244140 
-8.269990 -16.313499 0.709239 
-10.689900 -16.112600 -1.089860 
-7.891340 -16.295401 0.859402 
-7.800060 -16.278700 0.928553 
-7.841180 -16.296101 0.858675 
-8.840390 -16.326401 -0.056042 
-8.937320 -16.344900 -0.327768 
-10.944900 -16.158001 -1.836600 
-11.760800 -15.841200 -2.562960 
-8.736310 -16.353001 -0.373532 
-11.344400 -15.825900 -2.518160 
-8.158190 -16.299700 -0.316778 
-9.689390 -16.390100 -1.579530 
-9.570650 -16.385099 -1.575980 
-9.526520 -16.388500 -1.573210 
-8.638170 -16.342800 -1.040860 
-11.030300 -15.582600 -2.938880 
-9.459040 -16.378000 -2.322070 
-9.034900 -16.359200 -2.176150 
-9.510520 -16.400900 -2.905540 
-8.667320 -16.348101 -2.526060 
-8.489880 -16.334200 -2.670630 
-11.404000 -15.700100 0.597886 
-12.436900 -16.047701 -0.325153 
-12.539900 -16.052601 -0.407971 
-12.437600 -16.050800 -0.464086 
-12.362400 -16.036301 -0.490973 
-12.465900 -16.048000 -0.563822 
-12.325200 -16.042000 -0.498507 
-10.741800 -15.666000 0.590885 
-12.446600 -16.046700 -0.603423 
-12.549100 -16.053400 -0.706630 
-12.339600 -16.034901 -0.559677 
-11.854000 -15.718800 -0.282544 
-10.271500 -14.477400 0.690500 
-12.333200 -16.054100 -0.715070 
-10.953900 -15.835600 0.243351 
-12.540900 -16.046499 -0.920047 
-10.909500 -15.816000 0.243069 
-10.625000 -15.662500 0.375324 
-13.097600 -16.165100 -1.452060 
-11.161300 -15.996200 -0.186113 
-11.320200 -15.994000 -0.342392 
-13.958000 -16.591200 -2.393930 
-11.188700 -15.976100 -0.484213 
-11.296000 -15.988300 -0.561969 
-11.321600 -15.984800 -0.601452 
-11.274200 -15.985200 -0.599595 
-11.162300 -15.992400 -0.711444 
-11.371100 -15.987600 -0.915162 
-13.716900 -16.555901 -2.813410 
-7.968660 -16.294100 1.270010 
-8.269930 -16.297001 1.039800 
-10.169200 -16.143400 -0.414382 
-13.499600 -16.572201 -3.000090 
-13.566200 -16.593599 -3.058010 
-13.464900 -16.585600 -3.075400 
-8.918430 -16.334499 0.168873 
-8.752080 -16.333900 0.068458 
-9.839040 -15.801500 -0.809893 
-8.714440 -16.334700 -0.093888 
-11.339800 -15.798800 -1.998030 
-12.005800 -15.855600 -2.527560 
-8.866080 -16.344700 -0.364602 
-11.278600 -15.792500 -2.150960 
-8.146020 -16.308500 0.125375 
-8.061730 -16.303301 0.178341 
-11.304000 -15.772500 -2.183160 
-8.972490 -16.351999 -0.858640 
-11.444200 -15.668800 -3.209930 
-7.955380 -16.300800 -1.896910 
-11.549500 -13.959400 1.063630 
-10.852700 -15.674400 0.482916 
-13.143800 -16.103800 -1.484580 
-13.509300 -16.566799 -1.861410 
-11.418900 -15.997100 -0.510467 
-10.704600 -16.160801 -0.158138 
-9.680340 -15.614800 0.515397 
-10.815400 -16.156799 -0.466294 
-8.342260 -16.319599 0.885599 
-12.368000 -15.874100 -2.120040 
-8.199390 -16.308399 0.936986 
-10.616600 -16.155600 -0.999349 
-12.398300 -15.861700 -2.288950 
-8.248840 -16.318701 0.472474 
-7.948210 -16.298300 -0.108528 
-9.182350 -16.365999 -2.520890 
-12.120300 -15.733600 0.530706 
-11.585200 -15.704900 0.414305 
-11.405100 -15.700400 0.524674 
-11.408900 -15.708200 0.423127 
-10.985500 -15.682400 0.364918 
-12.879400 -16.255199 -1.515610 
-11.900100 -15.944500 -0.862140 
-7.757170 -16.126699 1.672110 
-8.712060 -16.345301 -2.895430 
-11.401400 -15.702000 0.609938 
-12.940100 -16.242001 -1.247370 
-11.958200 -16.019501 -1.254030 
-10.307200 -16.146200 -0.319185 
-11.436900 -15.862300 -1.917460 
-8.624370 -16.332800 -2.549550 
-12.135900 -16.079800 -1.339030 
-10.787500 -16.116199 -0.886915 
-9.854270 -15.921300 -0.689620 
-8.281390 -16.334801 -2.095530 
-12.444300 -15.837000 -1.926610 
-10.749300 -16.138500 -1.420980 
-11.126000 -13.943400 1.267650 
-11.629000 -16.054300 -1.393070 
-11.065900 -13.857300 1.574400 
-12.388000 -16.076500 -0.145656 
-11.605200 -15.991500 -1.339860 
-9.326230 -16.318399 -0.094740 
-10.494100 -16.431999 -3.331790 
-8.772710 -16.353300 -2.903510 
-9.710510 -16.411600 -2.905660 
-10.126700 -16.428200 -2.915800 
-11.989800 -15.857300 -2.629840 
-13.265000 -16.568701 -2.885560 
-12.075600 -15.859300 -2.552830 
-8.735840 -16.342300 -2.574930 
-9.320170 -16.381500 -2.544000 
-9.850610 -16.408600 -2.552220 
-9.008600 -16.369699 -2.459870 
-13.733000 -16.599701 -2.530550 
-13.672500 -16.573400 -2.517040 
-12.369900 -15.839100 -2.263670 
-8.635480 -16.345200 -2.258270 
-12.441500 -15.819500 -2.196520 
-12.414600 -15.854000 -2.097030 
-9.975440 -16.406200 -2.011800 
-8.431900 -16.339701 -1.934620 
-9.005900 -16.372801 -1.913490 
-13.678400 -16.579500 -1.911870 
-8.687760 -16.349300 -1.629010 
-13.028600 -16.190100 -1.612300 
-9.354240 -16.361900 -1.451710 
-13.166900 -16.231701 -1.340030 
-8.621500 -16.341499 -1.209340 
-8.038070 -16.298700 -1.135520 
-13.034700 -16.270599 -0.860745 
-13.251000 -16.275400 -0.783451 
-11.289800 -15.980900 -0.735171 
-12.458600 -16.044001 -0.739230 
-9.170010 -16.355801 -0.666594 
-8.408970 -16.311800 -0.614211 
-11.870100 -16.040199 -0.586182 
-10.597400 -16.015499 -0.502793 
-13.036600 -16.153900 -0.511695 
-11.898400 -15.783400 -0.411224 
-12.755400 -16.250099 -0.420195 
-8.576620 -16.342300 -0.353506 
-8.910350 -16.365999 -0.326821 
-11.871600 -15.704600 -0.290476 
-12.561700 -16.051300 -0.217420 
-11.942800 -15.853700 -0.203031 
-7.911020 -16.287300 -0.202395 
-10.569400 -16.159300 -0.200299 
-9.149780 -16.359600 -0.202314 
-12.291200 -16.042400 -0.190975 
-11.151900 -15.996800 -0.177602 
-8.923300 -16.361099 -0.172623 
-11.483200 -15.914700 -0.168795 
-8.723790 -16.343500 -0.128936 
-12.895700 -16.270901 -0.104365 
-9.112810 -16.355600 0.088303 
-11.880300 -15.715000 0.370256 
-11.228000 -15.693600 0.372564 
-11.162500 -15.690500 0.370344 
-9.861870 -15.628300 0.373292 
-11.154700 -15.695800 0.387697 
-8.689040 -16.320900 0.397663 
-11.397900 -15.701400 0.405423 
-9.699450 -15.622500 0.390474 
-11.845200 -15.726800 0.497275 
-10.725100 -15.668300 0.490169 
-10.358400 -15.657900 0.520638 
-7.717700 -16.265200 0.659329 
-8.256690 -16.301201 0.671558 
-7.861890 -16.282499 0.734790 
-11.092400 -13.939800 0.945528 
-9.628370 -15.584100 1.200770 
-11.903000 -13.977400 1.043650 
-11.087900 -13.940800 1.051540 
-11.935700 -13.979100 1.093320 
-11.454900 -13.960200 1.253270 
-9.244670 -16.378700 -3.043490 
-7.882670 -16.304899 -2.876450 
-7.992450 -16.329901 -2.877180 
-9.368830 -16.391701 -2.901360 
-10.219600 -16.426901 -2.886770 
-13.628500 -16.569500 -2.977140 
-9.531540 -16.396900 -2.724630 
-13.535200 -16.584000 -2.936400 
-9.873520 -16.412901 -2.731990 
-11.424000 -15.832800 -2.558630 
-11.737800 -15.848300 -2.560670 
-10.068500 -16.423100 -2.546220 
-14.097300 -16.618799 -2.555570 
-8.066420 -16.311199 -2.215400 
-11.248400 -15.767400 -2.163650 
-9.079550 -16.356400 -2.183200 
-13.879200 -16.606600 -2.390410 
-8.236920 -16.332500 -1.907920 
-13.763300 -16.586700 -2.124870 
-13.102300 -16.071899 -1.947730 
-9.961940 -16.426600 -1.855920 
-9.182290 -16.371401 -1.671790 
-8.652220 -16.341700 -1.623200 
-9.612660 -16.387199 -1.292090 
-12.962200 -16.253099 -1.326010 
-13.068700 -16.253500 -1.224080 
-10.662300 -16.143299 -0.857050 
-12.428900 -16.037001 -0.723134 
-8.654080 -16.370701 -0.620133 
-12.522600 -16.051001 -0.457678 
-11.851800 -15.754000 -0.420863 
-8.419230 -16.327700 -0.415362 
-8.397760 -16.309799 -0.360605 
-8.978960 -16.348801 -0.321351 
-11.594700 -15.891300 -0.292714 
-11.979900 -15.851600 -0.202763 
-12.949500 -16.270599 -0.206293 
-12.429400 -16.040300 -0.195572 
-8.856440 -16.343100 -0.183390 
-12.542900 -16.050800 -0.180054 
-7.936040 -16.282900 -0.145775 
-8.955420 -16.364100 -0.143433 
-8.552160 -16.310101 -0.057778 
-12.475500 -16.043900 -0.051348 
-8.756610 -16.322100 0.016705 
-9.012680 -16.367599 0.287141 
-12.529700 -15.759700 0.404459 
-11.195600 -15.691900 0.400661 
-10.552600 -15.660500 0.404062 
-10.219700 -15.648300 0.410584 
-10.224400 -15.641300 0.495327 
-9.605480 -15.617500 0.507239 
-10.097500 -15.635400 0.591101 
-8.831890 -16.344500 0.673017 
-7.884700 -16.288500 0.852412 
-8.377320 -16.309000 1.120420 
-9.635290 -15.586800 1.059020 
-10.562700 -14.340000 0.922820 
-8.503270 -16.315500 1.232030 
-7.734890 -16.274099 1.226490 
-8.501950 -16.317400 1.250680 
-8.310500 -16.295500 1.246720 
-7.890140 -16.278000 1.243500 
-8.228620 -16.297899 1.300240 
-7.863700 -16.286900 1.293690 
-7.908480 -16.282801 1.305070 
-11.087700 -13.942700 1.144660 
-7.540410 -16.108200 1.517690 
-10.329500 -16.434000 -3.312390 
-11.603800 -15.776000 -2.984750 
-8.705030 -16.345699 -2.893530 
-9.979880 -16.420601 -2.910150 
-8.509250 -16.344400 -2.725790 
-9.738500 -16.429199 -2.561420 
-7.864280 -16.292299 -2.298960 
-9.757110 -16.404600 -2.385700 
-11.282400 -15.773000 -2.219790 
-11.246300 -15.783600 -2.094450 
-12.390400 -15.870500 -2.085110 
-9.495400 -16.383400 -2.032950 
-11.904000 -16.008699 -1.732040 
-8.110960 -16.301901 -1.323200 
-10.450200 -16.130199 -0.811908 
-12.975800 -16.241600 -0.631190 
-12.950500 -16.246700 -0.608749 
-10.686000 -16.094400 -0.580359 
-13.105000 -16.247200 -0.610045 
-10.529500 -16.123600 -0.387439 
-11.458800 -15.959500 -0.117084 
-9.833600 -15.927500 -0.043987 
-9.019120 -16.363400 0.110750 
-8.664120 -16.350800 0.130010 
-11.592500 -15.710900 0.403120 
-8.010590 -16.278601 0.423488 
-8.359960 -16.329500 0.435329 
-10.232200 -15.641200 0.479871 
-11.617500 -15.710600 0.517442 
-8.406290 -16.304501 0.569194 
-10.730200 -15.671300 0.580654 
-8.329420 -16.298800 1.032310 
-8.599620 -16.314501 1.351000 
-11.765800 -13.973700 1.134290 
-11.219900 -13.948800 1.137870 
-7.551210 -16.119200 1.727290 
-9.829440 -16.416700 -3.246810 
-8.507240 -16.334400 -2.891010 
-12.437700 -15.826200 -2.252810 
-9.808900 -16.384600 -2.198680 
-13.624900 -16.586599 -1.862810 
-12.566300 -15.995100 -1.046500 
-8.792560 -16.334400 -1.030940 
-7.926480 -16.285101 -0.743003 
-8.419930 -16.315901 -0.579237 
-12.920100 -16.224400 -0.420085 
-11.853400 -15.711500 -0.253298 
-8.054790 -16.306000 -0.266752 
-11.962200 -15.856500 -0.179988 
-9.169140 -16.385099 -0.108168 
-8.354460 -16.334101 0.454200 
-8.379560 -16.298700 0.520382 
-8.215520 -16.299101 1.038730 
-7.911480 -16.274000 1.344730 
-7.492030 -16.111900 1.479270 
-13.974200 -16.573799 -2.380380 
-9.410510 -16.392000 -1.903480 
-12.254600 -15.834200 -1.316600 
-10.697700 -16.153700 -1.022820 
-7.990320 -16.314100 -0.848931 
-13.041100 -16.244900 -0.788034 
-13.034800 -16.278700 -0.644764 
-12.094200 -15.921000 -0.275074 
-7.421550 -16.122499 1.505510 
-12.471600 -15.698300 -2.790220 
-10.116000 -16.431801 -2.745700 
-9.440300 -16.379801 -2.481310 
-8.836970 -16.358900 -2.254500 
-11.631500 -16.004299 -1.615940 
-12.693200 -16.014200 -1.298460 
-13.019400 -16.267300 -1.338060 
-11.951000 -16.052900 -1.206570 
-8.561340 -16.330799 -1.039360 
-8.755440 -16.302200 -0.992057 
-12.534100 -16.049999 -0.504986 
-10.820400 -16.131100 -0.385916 
-9.038720 -16.369699 -0.110598 
-8.361340 -16.291800 1.341010 
-7.735890 -16.134600 1.671690 
-12.449700 -15.897900 -2.124980 
-8.614570 -16.341900 -0.706419 
-10.325400 -15.639600 0.513455 
-11.945700 -15.973700 -2.021440 
-11.520600 -15.877300 -0.228699 
-11.055800 -16.022301 -1.264220 
-9.868500 -16.001200 -0.038597 
-8.639330 -16.306299 0.498408 
-12.409200 -15.835600 -2.163300 
-11.179100 -15.656100 0.600557 
-12.204900 -15.932000 -1.841990 
-8.535040 -16.324400 -1.448030 
-10.891100 -16.082100 -1.327330 
-11.855000 -15.958500 -0.110064 
-9.877900 -16.070700 -0.626486 
-13.681700 -16.597200 -2.852720 
-9.937330 -16.424400 -3.202990 
-10.118300 -16.404100 -3.043810 
-12.965500 -16.224899 -1.699310 
-12.972500 -16.234100 -1.596650 
-11.244300 -15.767800 -2.161880 
-11.665000 -15.996800 -1.934520 
-13.319300 -16.255800 -1.212770 
-11.529900 -15.997000 -1.486430 
-8.889040 -16.348301 -2.608190 
-8.726920 -16.336399 -2.599330 
-13.035400 -16.157000 -0.473860 
-12.379500 -16.038799 -0.732397 
-12.754100 -16.251499 -0.420529 
-9.555040 -16.396999 -1.890320 
-11.128600 -15.971400 -0.987091 
-12.395400 -16.045401 -0.210419 
-12.353600 -16.041500 -0.222350 
-11.963400 -15.774200 -0.327690 
-11.379200 -15.989200 -0.484840 
-11.123900 -15.979100 -0.477675 
-10.696200 -16.130199 -0.624501 
-11.359700 -15.981500 -0.226144 
-11.242300 -15.992400 -0.037745 
-11.190200 -15.693300 0.399962 
-10.927300 -15.679300 0.518712 
-10.226400 -15.642500 0.314686 
-11.772500 -13.969200 1.154640 
-8.729020 -16.316299 0.357002 
-9.614830 -15.577500 1.062490 
-8.057870 -16.290501 0.439219 
-13.705200 -16.607901 -2.868470 
-13.739500 -16.572201 -2.164730 
-12.368700 -15.835900 -2.258890 
-12.242000 -15.810700 -2.295140 
-10.330700 -16.420799 -3.314200 
-11.391100 -15.826300 -2.551300 
-11.184200 -15.768600 -2.245300 
-11.352500 -15.781900 -2.157060 
-9.899920 -16.402901 -2.997170 
-9.157860 -16.381300 -3.166290 
-12.186400 -16.018000 -1.677970 
-11.552700 -15.983600 -1.932670 
-12.951700 -16.253700 -1.325130 
-12.120300 -16.025700 -1.553400 
-11.735900 -15.995000 -1.707150 
-9.738200 -16.383499 -2.414190 
-10.001800 -16.403601 -2.114580 
-11.985100 -16.029800 -1.088780 
-8.971440 -16.357000 -2.309260 
-9.013050 -16.369200 -2.237530 
-8.659510 -16.362000 -2.246700 
-11.910800 -16.034800 -0.631737 
-11.363200 -15.982600 -0.744858 
-11.187800 -15.973900 -0.745144 
-12.451800 -16.046400 -0.079733 
-12.383700 -16.038900 -0.051470 
-10.699500 -16.151501 -0.824278 
-11.937100 -15.871200 -0.160749 
-11.201900 -15.988900 -0.349635 
-8.626190 -16.337999 -1.582830 
-10.896600 -16.174101 -0.443540 
-12.430500 -15.746600 0.364401 
-9.744660 -15.764900 -0.877425 
-9.736160 -15.741200 -0.796815 
-11.915200 -15.725700 0.378816 
-11.527500 -15.698100 0.493734 
-11.343700 -15.699500 0.467224 
-9.965030 -15.637500 0.363966 
-9.956600 -15.634300 0.380058 
-8.379310 -16.323099 -0.343778 
-8.971610 -16.357300 0.357501 
-8.940090 -16.341600 0.345596 
-9.645630 -15.587000 1.210360 
-8.613120 -16.310200 1.265500 
-13.463900 -16.580900 -3.086510 
-12.567800 -15.850800 -2.188870 
-11.288700 -15.760800 -2.212750 
-11.070100 -15.739000 -2.286850 
-11.031900 -15.737300 -2.295650 
-9.853920 -16.419300 -2.899510 
-11.540800 -15.984500 -1.920410 
-11.641500 -15.997100 -1.631710 
-11.469200 -15.981400 -1.686010 
-7.918900 -16.322901 -3.230990 
-11.970800 -16.018299 -1.278610 
-12.771900 -16.245501 -0.933774 
-11.959300 -16.034700 -1.122060 
-11.306500 -15.952200 -1.061290 
-11.346700 -15.973400 -0.983347 
-12.255400 -16.031799 -0.484030 
-11.161000 -15.976000 -0.959755 
-11.425500 -15.990200 -0.709552 
-12.423300 -16.045000 -0.179426 
-11.959500 -15.850000 -0.180158 
-8.736870 -16.339500 -1.635270 
-10.463500 -16.126301 -0.797242 
-10.615500 -16.126699 -0.631343 
-10.742900 -16.125700 -0.560669 
-8.102800 -16.304199 -1.332250 
-8.890010 -16.348801 -0.882719 
-10.333000 -16.139799 -0.104466 
-9.183440 -16.359501 -0.653658 
-9.211580 -16.381001 -0.615424 
-9.867770 -15.924000 -0.080899 
-8.553730 -16.335100 -0.316340 
-9.927470 -15.630700 0.409940 
-8.017240 -16.287500 0.239954 
-8.422060 -16.307400 0.654675 
-8.332220 -16.319201 0.714964 
-8.905390 -16.348700 1.227960 
-8.588140 -16.313299 1.347690 
-8.457480 -16.171200 1.511440 
-13.566000 -16.582800 -3.067520 
-13.501000 -16.568701 -2.905700 
-12.847000 -16.046301 -2.250200 
-12.434100 -15.819200 -2.251660 
-12.505200 -15.821900 -2.186110 
-12.321400 -15.833400 -2.145000 
-12.096000 -16.022900 -1.955340 
-11.323900 -15.851600 -2.111510 
-13.062400 -16.234800 -0.593188 
-10.654100 -16.153700 -1.246380 
-11.793400 -16.043501 -0.629407 
-12.684000 -16.025801 0.088383 
-11.329600 -15.988500 -0.488287 
-12.195400 -15.974000 -0.065863 
-11.247800 -15.978100 -0.327045 
-11.407600 -15.974000 -0.135753 
-11.458900 -15.963500 -0.109549 
-11.175800 -15.982700 -0.078399 
-8.904300 -16.354900 -0.672278 
-9.916700 -15.839900 0.118482 
-8.266780 -16.311501 0.716197 
-8.424460 -16.307800 0.925816 
-12.494500 -15.866700 -2.514320 
-11.334500 -15.804400 -1.991270 
-12.491000 -16.042400 -0.712563 
-12.489400 -16.044100 -0.180953 
-12.238000 -16.025700 -0.101716 
-12.379400 -15.865000 0.254203 
-11.222400 -15.980400 -0.089490 
-8.467400 -16.321100 -1.054790 
-8.030680 -16.298300 -0.751184 
-10.003100 -15.777500 0.246171 
-8.132910 -16.312401 0.408028 
-8.338720 -16.301001 1.158180 
-13.532500 -16.571199 -3.004710 
-12.906400 -16.240601 -1.812000 
-12.896700 -16.266600 -1.347410 
-10.789900 -16.151800 -1.496640 
-10.811000 -16.142000 -1.441080 
-11.224800 -15.972300 -0.888581 
-11.986600 -15.713200 0.368490 
-10.308600 -15.655500 0.364456 
-9.687900 -15.605400 0.420024 
-8.824020 -16.295601 1.208380 
-7.595750 -16.099701 1.713900 
-10.709900 -16.135099 -1.268370 
-12.487600 -16.038601 -0.095124 
-13.246900 -16.083700 -1.440490 
-7.558350 -16.140499 1.418680 
-12.409100 -15.796500 -2.271020 
-11.824300 -16.042101 -0.606552 
-12.125600 -16.021400 -1.611760 
-13.701200 -16.608200 -2.869400 
-13.700300 -16.593901 -2.829830 
-13.323100 -16.571699 -2.904670 
-12.339400 -15.835000 -2.235640 
-11.642900 -15.839500 -2.550600 
-12.556700 -16.045700 -1.004140 
-12.365900 -16.038401 -0.961396 
-11.895800 -15.984600 -1.304550 
-12.489700 -16.042900 -0.597730 
-12.573700 -16.050301 -0.472648 
-12.309300 -16.036100 -0.731274 
-12.306600 -16.040199 -0.205822 
-11.872900 -15.718600 -0.234920 
-10.019900 -16.416800 -2.556290 
-12.302900 -15.742500 0.519221 
-10.685700 -16.103901 -1.429560 
-11.291100 -15.979900 -0.604940 
-11.546500 -15.862400 -0.249010 
-9.279790 -16.396000 -3.052440 
-11.310800 -15.988400 -0.206818 
-10.719400 -15.668700 0.459752 
-9.970810 -15.841500 0.163997 
-13.056200 -16.245399 -0.634606 
-11.299100 -15.775700 -2.163390 
-12.897100 -16.272800 -0.100588 
-12.376900 -16.040800 -0.226170 
-9.990090 -16.403700 -2.949750 
-11.239300 -15.950200 -1.026540 
-10.690100 -16.110901 -1.642730 
-10.757200 -16.152000 -0.527751 
-11.182500 -15.690300 0.384034 
-10.667300 -16.149000 -0.215068 
-9.211490 -16.378401 -1.605280 
-9.714410 -15.734000 -0.841268 
-9.035480 -16.345900 -0.718550 
-8.155470 -16.305401 -1.542650 
-9.704290 -15.620300 0.394137 
-8.546670 -16.327000 -0.192344 
-8.008190 -16.295700 -0.732292 
-8.710780 -16.314699 0.155463 
-7.986900 -16.303900 -0.310288 
-7.848910 -16.293301 0.673466 
-8.484440 -16.174601 1.486800 
-13.715600 -16.600901 -2.711730 
-12.854600 -16.059401 -2.260200 
-12.097400 -16.026501 -1.592440 
-12.508500 -16.042801 -0.955615 
-12.510700 -16.053900 -0.042574 
-10.163200 -16.421301 -2.886700 
-11.212900 -15.982700 -0.853207 
-10.759700 -16.149401 -0.814334 
-10.755200 -16.114401 -0.498717 
-8.955070 -16.363001 -2.545200 
-11.185900 -15.680600 0.406530 
-9.178730 -16.375700 -1.627560 
-8.894580 -16.359900 -1.891240 
-10.496100 -15.649700 0.372931 
-10.365000 -15.651200 0.391878 
-9.157580 -16.367100 -0.600671 
-8.913130 -16.349001 1.230710 
-7.860860 -16.283300 1.276250 
-13.522800 -16.566799 -3.001880 
-12.540700 -15.879200 -2.622240 
-12.523700 -15.843100 -2.240920 
-12.037900 -16.023800 -1.869930 
-12.080000 -16.031200 -1.818840 
-12.773100 -16.242399 -0.395857 
-12.351300 -16.038000 -0.403413 
-10.260300 -16.409401 -2.766780 
-10.899100 -15.883900 0.243089 
-10.006100 -15.833400 0.188043 
-10.140600 -15.647200 0.355537 
-9.886750 -15.623100 0.384357 
-9.838550 -15.624800 0.377352 
-7.980460 -16.302000 -0.339861 
-13.466800 -16.556499 -2.919680 
-12.205000 -15.862400 -2.259580 
-13.070500 -16.293100 -1.058820 
-11.689500 -16.047701 -0.728973 
-8.423830 -16.323900 0.442696 
-8.274290 -16.318100 0.837551 
-12.387300 -15.974600 -0.997290 
-12.746100 -15.941500 0.183409 
-7.744830 -16.082800 1.584900 
-10.732900 -16.144300 -1.245110 
-8.281410 -16.326300 -1.463670 
-11.822500 -15.981000 -1.297050 
-10.814000 -16.157301 -0.826565 
-7.539230 -16.188299 1.391970 
-11.939200 -16.025101 -1.760050 
-10.969400 -15.922800 -2.206380 
-11.643600 -15.984200 -0.675994 
-10.457700 -16.115499 -0.487008 
-10.165700 -16.191601 -1.861090 
-12.812900 -16.059999 -2.288010 
-13.078000 -16.266800 -0.810925 
-12.796300 -16.256001 -0.380417 
-12.112100 -16.022900 -1.613660 
-11.434600 -15.782900 -2.223090 
-11.657900 -13.966400 1.302200 
-11.523500 -13.957800 1.076750 
-11.325000 -15.988600 -0.451142 
-11.196700 -15.984500 -0.951269 
-11.189000 -15.982500 -0.224221 
-11.179300 -15.981500 -0.205367 
-11.086900 -13.939200 1.284520 
-9.280820 -16.397499 -2.222410 
-12.825700 -16.054100 -2.290890 
-12.981900 -16.266800 -0.791471 
-12.505500 -15.870200 -2.168440 
-12.976000 -16.271900 -0.183915 
-12.483400 -16.045200 -0.578268 
-12.486200 -16.054600 -0.460736 
-12.018600 -16.020201 -1.663000 
-12.334900 -16.043301 -0.202358 
-11.889900 -16.017000 -1.690960 
-11.356000 -15.770800 -2.229520 
-11.559500 -13.960400 1.282890 
-11.506000 -15.957100 -0.020186 
-11.313200 -15.985000 -0.201005 
-11.111500 -15.983300 -0.024981 
-11.053400 -13.936100 1.140320 
-10.144900 -16.416201 -2.937480 
-10.626500 -16.136200 -0.641376 
-10.686500 -16.155800 -0.188442 
-10.574800 -16.152201 -0.194447 
-9.789250 -16.408199 -2.260760 
-9.682920 -16.398800 -2.683450 
-10.305500 -16.141001 -0.083990 
-9.838550 -16.394899 -1.533350 
-9.709400 -15.922000 -0.158474 
-9.008640 -16.363800 -2.190670 
-8.767960 -16.347900 -3.138410 
-9.160370 -16.358900 0.086443 
-8.887020 -16.352900 -0.330084 
-8.693680 -16.327999 0.083132 
-8.675690 -16.316401 0.083849 
-8.637540 -16.306801 1.181060 
-8.034310 -16.296200 -0.718954 
-8.055190 -16.298500 0.136715 
-7.874480 -16.289700 0.898275 
-7.841190 -16.281799 0.886464 
-12.459100 -16.046400 -0.307689 
-12.125800 -16.037600 -1.541300 
-12.386100 -16.041901 -0.331714 
-10.694900 -16.149401 -0.850990 
-9.164970 -16.375799 -3.147020 
-9.552010 -16.384001 -1.466830 
-8.986140 -16.367701 -3.241620 
-9.301540 -16.372200 -1.299340 
-9.130940 -16.352301 0.141998 
-8.924750 -16.353399 -0.190257 
-8.340580 -16.323400 0.732637 
-7.837530 -16.273399 1.282930 
-13.481000 -16.564899 -2.977820 
-12.403700 -15.849500 -2.178060 
-12.507000 -16.047100 -0.227943 
-12.373100 -16.042601 -0.096101 
-11.464000 -15.974500 -1.680550 
-11.669300 -15.709800 0.505318 
-11.330200 -15.981500 -0.933155 
-11.277300 -15.983100 -0.906133 
-8.634400 -16.345301 -2.259990 
-8.259750 -16.315300 -2.217190 
-12.202100 -16.014099 -1.671490 
-12.411300 -16.040899 -0.088234 
-11.141700 -15.689300 0.382114 
-10.572400 -15.972100 -1.891720 
-9.035590 -16.350000 -0.829405 
-8.848590 -16.355000 -1.505390 
-13.209200 -16.072901 -1.546760 
-13.077100 -16.069599 -1.957170 
-11.948500 -16.021500 -1.742430 
-11.475400 -15.985100 -1.536980 
-11.130500 -15.974200 -0.706689 
-10.547100 -15.951700 -1.952280 
-9.876170 -15.916400 -0.029522 
-8.467350 -16.323000 -0.363850 
-8.424810 -16.319099 -0.384186 
-8.409140 -16.297600 0.521143 
-12.022300 -16.021000 -1.716810 
-8.468940 -16.330601 -0.482872 
-12.242600 -16.010000 -1.457100 
-10.819500 -16.147200 -0.852417 
