-13.694400 -10.629000 -7.054500 
-13.543000 -10.800200 -6.754890 
-13.159800 -10.771700 -7.126880 
-12.996400 -10.760800 -7.360360 
-18.586700 -9.331920 -6.210640 
-16.025700 -8.885940 -2.030880 
-17.900700 -9.816870 -4.605470 
-17.864799 -9.835860 -4.582510 
-17.761600 -9.920630 -4.456330 
-16.982901 -10.048800 -2.967830 
-17.529200 -10.120000 -4.110200 
-17.531300 -10.039700 -4.328880 
-15.543000 -9.069110 -1.970370 
-17.100201 -9.802210 -4.671180 
-16.785200 -10.074000 -3.893800 
-17.099100 -9.199000 -5.734940 
-16.691401 -10.088800 -3.860830 
-16.605600 -9.969530 -4.066430 
-15.317500 -9.101730 -2.089930 
-16.233900 -10.330500 -3.216990 
-16.604200 -10.158200 -4.316760 
-15.204200 -9.109380 -2.167200 
-15.170700 -9.109700 -2.201610 
-16.586599 -10.041000 -4.696280 
-16.765600 -9.605760 -5.587810 
-16.484699 -10.103900 -4.619480 
-16.153000 -10.308500 -4.235940 
-16.083099 -10.361300 -4.150730 
-16.200399 -10.109900 -4.727280 
-16.274900 -9.899700 -5.237200 
-15.984800 -10.437400 -4.033990 
-16.127600 -10.097000 -4.782750 
-14.883700 -9.509250 -2.330140 
-16.314899 -9.175070 -6.520250 
-15.997500 -10.120200 -4.809080 
-15.982200 -10.124600 -4.790650 
-15.982600 -10.114400 -4.809650 
-16.055901 -9.582990 -5.719350 
-14.793500 -9.732380 -2.253210 
-15.993800 -9.551330 -5.798460 
-15.731000 -10.755300 -4.014260 
-15.826600 -10.422300 -4.806950 
-15.566000 -10.807300 -4.013030 
-15.554000 -10.496000 -4.842910 
-15.693600 -10.192900 -5.559940 
-15.643800 -9.816260 -6.014670 
-15.557900 -10.207400 -5.526100 
-15.087900 -10.944000 -4.077430 
-15.216000 -9.833770 -5.882640 
-14.774100 -10.840000 -3.829290 
-14.734300 -10.889100 -3.959670 
-14.893500 -10.793700 -5.494950 
-14.816700 -10.618900 -6.035240 
-14.841100 -10.568300 -6.218910 
-14.708500 -10.816700 -5.616600 
-14.910800 -10.319700 -6.838100 
-14.867800 -10.331900 -6.819290 
-13.988800 -12.008900 -2.936360 
-14.567700 -10.731400 -5.987370 
-14.206200 -11.482500 -4.264530 
-14.739900 -10.263200 -7.115110 
-14.200100 -11.356000 -4.601920 
-14.425500 -10.493000 -6.796700 
-14.054900 -11.273400 -4.977690 
-13.776700 -11.660400 -4.139950 
-13.758600 -11.606100 -4.274540 
-13.735800 -11.636300 -4.184920 
-14.134600 -10.628200 -6.717000 
-13.912200 -11.089000 -5.607350 
-13.430900 -12.007500 -3.491960 
-13.707900 -11.269200 -5.298930 
-13.562300 -11.432700 -4.973890 
-13.493900 -11.563700 -4.627900 
-13.421100 -11.641200 -4.480960 
-13.545800 -11.328300 -5.278540 
-13.118800 -12.209000 -3.204870 
-13.718800 -10.781600 -6.579100 
-13.761700 -10.650800 -6.957750 
-13.686200 -10.790600 -6.573370 
-12.956400 -12.282100 -3.125290 
-13.124700 -11.861600 -4.113750 
-12.855200 -12.268300 -3.238880 
-13.524000 -10.743200 -6.906010 
-13.568500 -10.623100 -7.201380 
-13.141700 -11.562300 -4.992900 
-13.501700 -10.605400 -7.292590 
-12.546700 -12.393100 -2.701370 
-12.774300 -11.924900 -4.273360 
-13.098200 -11.125400 -6.255940 
-13.140500 -10.846800 -7.004000 
-17.893400 -9.917680 -4.247480 
-18.553699 -9.278870 -6.384450 
-17.800301 -9.941570 -4.264600 
-17.801901 -9.933470 -4.297380 
-17.703300 -10.052600 -4.073450 
-17.734900 -9.965860 -4.282360 
-15.690800 -8.989350 -1.477570 
-17.704500 -9.975810 -4.270810 
-17.671101 -10.013800 -4.212680 
-18.339899 -9.311400 -6.500340 
-17.753500 -9.482510 -5.420890 
-17.043501 -10.121600 -3.380460 
-17.978300 -9.484980 -6.315800 
-17.244301 -9.920020 -4.361240 
-17.090799 -10.038800 -4.128710 
-17.115900 -9.820130 -4.647950 
-17.117399 -9.795490 -4.692560 
-15.146500 -9.185300 -1.746690 
-15.171500 -9.147280 -2.093580 
-15.062500 -9.245380 -1.864510 
-16.274000 -10.378300 -3.811460 
-15.938400 -9.657370 -5.683130 
-15.916000 -9.612670 -5.799210 
-15.601500 -10.673600 -4.294780 
-15.592000 -10.586200 -4.488450 
-15.568300 -10.582300 -4.507350 
-15.494500 -10.543800 -4.731050 
-15.295900 -10.644700 -4.681740 
-15.297300 -9.960680 -5.935980 
-15.488100 -10.209100 -6.595220 
-14.382200 -11.079400 -2.739160 
-14.562100 -10.892500 -4.094190 
-14.956700 -10.648500 -5.881780 
-14.834000 -10.696600 -5.872460 
-14.663900 -10.572100 -6.326220 
-14.647700 -10.534800 -6.449410 
-14.049300 -11.492400 -4.354040 
-13.650700 -11.809000 -3.857170 
-14.023900 -10.794300 -6.327050 
-13.368000 -12.119700 -3.180630 
-13.708700 -11.301000 -5.232110 
-13.710900 -11.284900 -5.274110 
-13.643200 -11.402000 -4.979710 
-13.684600 -11.300300 -5.214980 
-13.282000 -12.109900 -3.300910 
-13.396900 -11.812700 -4.034740 
-13.619300 -11.246600 -5.442350 
-13.704000 -11.029600 -5.950100 
-13.831000 -10.530400 -7.225400 
-12.950700 -12.243500 -3.237990 
-13.135000 -11.502800 -5.180020 
-13.089400 -10.913900 -6.827210 
-18.951500 -9.138750 -6.386140 
-18.791100 -9.351730 -5.947150 
-18.779301 -9.362810 -5.904720 
-17.729099 -10.044700 -4.055350 
-18.385300 -9.253700 -6.567930 
-17.243799 -10.098200 -3.862320 
-17.162800 -10.163300 -3.732550 
-17.170200 -9.965310 -4.256680 
-17.258301 -9.743370 -4.693650 
-16.986500 -10.163500 -3.807560 
-16.578199 -9.979240 -3.886570 
-16.091000 -10.417200 -3.996370 
-16.132200 -10.330900 -4.195920 
-16.141100 -10.064000 -4.812770 
-15.964800 -10.426100 -4.104810 
-15.914300 -10.491200 -3.981950 
-15.630600 -10.632800 -4.386750 
-15.568000 -10.393200 -4.982970 
-15.285600 -10.668800 -4.648940 
-14.917800 -10.915300 -4.291950 
-15.170200 -10.593900 -5.864630 
-14.473500 -10.845400 -3.411640 
-14.774600 -10.777900 -5.675690 
-14.841200 -10.508600 -6.406740 
-14.582000 -10.887900 -5.525010 
-13.975500 -11.986500 -3.056820 
-13.893000 -11.819500 -3.582170 
-14.028700 -11.254600 -5.014380 
-13.835900 -11.283100 -5.113260 
-13.448600 -11.979800 -3.589630 
-13.343100 -12.075000 -3.405230 
-13.338200 -12.036000 -3.544390 
-13.678700 -11.114000 -5.734060 
-13.561200 -10.830100 -6.648200 
-12.960900 -12.092400 -3.683910 
-13.107100 -11.793300 -4.465290 
-13.067000 -10.968500 -6.697760 
-17.854099 -9.856170 -4.534020 
-17.871700 -9.479940 -5.027110 
-17.802900 -9.634890 -5.015390 
-17.828300 -9.325590 -5.443580 
-18.311600 -9.273210 -6.574270 
-18.327200 -9.265640 -6.657350 
-17.250700 -10.019200 -4.042500 
-16.307600 -10.307000 -3.198540 
-15.018700 -8.971320 -2.469540 
-15.012200 -9.329110 -2.109600 
-15.923500 -10.456700 -4.057500 
-15.723700 -10.729100 -4.059200 
-15.077400 -10.617100 -3.480190 
-14.344900 -11.037000 -2.876030 
-14.475600 -10.503100 -4.738880 
-14.020300 -11.929100 -3.123950 
-14.523700 -10.764100 -5.945880 
-14.027900 -11.194900 -5.221140 
-13.731400 -11.594200 -4.316680 
-13.745300 -11.278500 -5.230530 
-13.417400 -11.977300 -3.630160 
-13.688700 -11.212800 -5.477130 
-13.787200 -10.775200 -6.590540 
-13.509300 -11.324200 -5.266450 
-12.883800 -12.310900 -2.656620 
-12.904600 -12.166100 -3.469680 
-13.521500 -10.738800 -6.922210 
-17.804600 -9.367440 -5.440570 
-17.205200 -10.072500 -3.941310 
-16.304300 -10.309600 -3.201380 
-15.205400 -9.174310 -1.983390 
-16.632601 -9.858910 -4.999590 
-16.126400 -10.376800 -4.052450 
-16.028900 -9.510720 -5.881670 
-15.107600 -10.849600 -4.189030 
-15.208700 -10.203200 -6.873060 
-13.826300 -12.014200 -3.088050 
-13.468100 -11.905500 -3.689490 
-13.472500 -11.868000 -3.785430 
-14.044000 -10.524600 -7.027850 
-17.846701 -9.797080 -4.684390 
-17.164600 -10.034800 -4.067540 
-17.534300 -9.344390 -5.728160 
-17.167200 -9.853490 -4.537010 
-17.212799 -9.229170 -5.650880 
-17.087601 -9.246530 -5.692660 
-16.911501 -9.677560 -5.274450 
-16.749701 -9.987330 -5.190270 
-16.522301 -9.634990 -5.622970 
-16.044001 -10.358800 -4.175410 
-16.018101 -9.538410 -5.797980 
-15.375300 -10.172800 -5.370450 
-16.873400 -9.662350 -5.332310 
-16.244600 -9.896900 -5.029390 
-12.526900 -12.371300 -2.783880 
-15.666800 -10.471800 -4.747440 
-12.607800 -12.319600 -2.992580 
-15.820300 -10.233200 -5.181560 
-15.557700 -10.666800 -4.303890 
-16.132900 -9.627290 -5.540340 
-14.810300 -10.800800 -3.759200 
-15.398300 -9.945080 -6.615940 
-15.755800 -9.689490 -6.098930 
-15.206600 -9.134360 -2.101510 
-16.539000 -10.195300 -3.302850 
-17.130501 -10.167300 -3.758570 
-17.139900 -10.160700 -3.766380 
-17.310400 -10.072600 -3.868810 
-16.103701 -10.315500 -3.402360 
-17.766500 -9.913620 -4.122390 
-17.779400 -9.905790 -4.130170 
-17.768000 -9.907920 -4.138660 
-15.318500 -10.603700 -3.291990 
-15.463200 -10.518800 -3.398540 
-17.813400 -9.867570 -4.541900 
-18.117399 -9.660990 -4.684930 
-14.918300 -10.706000 -3.363390 
-18.125601 -9.652330 -4.704340 
-18.114901 -9.641330 -4.739820 
-16.340401 -10.191800 -4.001800 
-16.327299 -10.196900 -4.002060 
-16.270800 -10.209200 -4.006710 
-16.510700 -9.958310 -4.085580 
-14.915600 -10.676900 -3.456730 
-16.638300 -10.157600 -4.310160 
-17.977900 -9.642560 -4.897840 
-16.549101 -9.986200 -4.389930 
-17.810801 -9.654690 -4.979120 
-17.802299 -9.656630 -4.995710 
-17.761999 -9.673660 -4.988680 
-12.958800 -12.293900 -3.113960 
-13.761300 -11.905800 -3.437970 
-13.972400 -11.816200 -3.554990 
-17.745899 -9.614150 -5.152200 
-17.743200 -9.595330 -5.186960 
-13.856900 -11.756500 -3.807870 
-17.731100 -9.531670 -5.405710 
-17.820200 -9.337730 -5.437710 
-16.647400 -9.863190 -4.952450 
-16.604700 -9.858070 -4.964750 
-14.081900 -11.586200 -4.053650 
-17.514999 -9.525450 -5.605250 
-15.097700 -10.704100 -4.590690 
-15.130900 -10.695700 -4.613570 
-15.105500 -10.696900 -4.603660 
-18.882099 -9.177940 -6.295120 
-18.944401 -9.161950 -6.338180 
-18.468300 -9.386390 -6.150450 
-18.376801 -9.377930 -6.253240 
-18.419100 -9.322450 -6.348650 
-13.971500 -11.463500 -4.539650 
-18.660700 -9.157190 -6.565280 
-18.310801 -9.330110 -6.491020 
-15.185900 -10.507700 -5.038950 
-15.210400 -10.507200 -5.054300 
-15.193800 -10.501600 -5.055020 
-17.996799 -9.454670 -6.394410 
-18.178900 -9.366920 -6.477610 
-15.572800 -10.312200 -5.252320 
-15.534500 -10.320900 -5.233850 
-17.993601 -9.451450 -6.409100 
-18.007799 -9.437780 -6.417140 
-15.516200 -10.326000 -5.233680 
-15.741600 -10.195400 -5.328540 
-17.989599 -9.439200 -6.429900 
-16.911600 -9.257610 -5.785600 
-15.578700 -10.171100 -5.621230 
-14.047400 -11.231500 -5.107470 
-15.766600 -10.053700 -5.759920 
-15.754600 -10.049100 -5.767830 
-16.065800 -9.511850 -5.831480 
-16.113899 -9.475660 -5.854890 
-13.698700 -11.308000 -5.195110 
-14.359900 -10.957800 -5.538700 
-16.727600 -9.055230 -6.474080 
-14.623500 -10.759600 -5.900680 
-14.873900 -10.599600 -6.071210 
-16.406000 -9.149330 -6.504430 
-16.420099 -9.141760 -6.507680 
-16.392500 -9.150100 -6.510500 
-16.325701 -9.164960 -6.524330 
-14.711300 -10.580400 -6.277240 
-14.750200 -10.549600 -6.338410 
-15.864600 -9.191080 -6.466890 
-14.979800 -10.421000 -6.476920 
-13.739300 -11.003700 -6.007500 
-14.823400 -10.452000 -6.531670 
-14.150700 -10.780200 -6.283980 
-14.926500 -10.312700 -6.848430 
-15.135500 -10.194800 -6.942450 
-15.143700 -10.172700 -6.998400 
-15.259600 -10.026700 -7.278340 
-14.341300 -10.508700 -6.905950 
-15.622100 -9.053050 -1.933960 
-15.542200 -9.075350 -1.957980 
-15.935700 -8.892270 -2.093540 
-15.201400 -9.177240 -1.987780 
-15.619200 -8.982960 -2.137730 
-15.190600 -9.143290 -2.087060 
-15.638100 -8.937340 -2.252500 
-15.316200 -9.080810 -2.151810 
-15.173100 -9.144500 -2.101040 
-15.204200 -9.112170 -2.165040 
-16.880600 -10.141000 -3.141460 
-17.192699 -9.992100 -3.262650 
-16.206100 -10.366200 -3.129720 
-16.158600 -10.344200 -3.235100 
-16.133400 -10.354200 -3.229030 
-17.725100 -10.123800 -3.925250 
-17.808599 -9.917100 -4.081260 
-17.532301 -10.121100 -4.112130 
-15.484000 -10.550300 -3.299860 
-16.439400 -10.100700 -3.899880 
-18.133600 -9.669970 -4.666110 
-13.970200 -11.946300 -3.127130 
-17.219500 -9.906480 -4.383530 
-18.079201 -9.649340 -4.801130 
-14.609500 -10.767700 -3.503690 
-16.640900 -9.928570 -4.416400 
-14.383000 -10.792400 -3.611390 
-13.363100 -12.060800 -3.360960 
-13.577300 -11.919300 -3.607660 
-16.085800 -10.182600 -4.626710 
-18.860600 -9.338860 -5.935450 
-16.731501 -9.862180 -4.951700 
-14.083300 -11.597200 -3.970310 
-12.942600 -12.090500 -3.660230 
-14.925500 -10.817800 -4.439820 
-18.608200 -9.364460 -6.096980 
-17.526100 -9.527850 -5.592800 
-15.115200 -10.689300 -4.616250 
-18.988501 -9.131950 -6.370030 
-13.129300 -11.951400 -3.893080 
-13.505500 -11.766900 -4.063020 
-13.177600 -11.906100 -4.004910 
-14.004700 -11.510400 -4.369770 
-13.956800 -11.537700 -4.351870 
-13.235200 -11.849700 -4.060730 
-13.938500 -11.530100 -4.366250 
-13.961000 -11.504400 -4.406720 
-18.774900 -9.140620 -6.488580 
-18.777300 -9.136270 -6.520420 
-13.987400 -11.463600 -4.531190 
-18.471201 -9.266520 -6.478630 
-17.254601 -9.151670 -5.739860 
-13.567700 -11.651900 -4.381250 
-17.122999 -9.213250 -5.705140 
-17.101400 -9.208280 -5.710920 
-18.322901 -9.323800 -6.472100 
-18.213600 -9.350770 -6.508260 
-15.498400 -10.332400 -5.231410 
-15.536300 -10.313600 -5.248900 
-15.559400 -10.300300 -5.267180 
-13.774300 -11.483200 -4.627070 
-15.332600 -10.394500 -5.205310 
-16.919600 -9.243530 -5.788920 
-17.573799 -8.915240 -6.193840 
-13.041500 -11.770500 -4.440270 
-16.549801 -9.591220 -5.819830 
-14.713100 -10.944100 -5.288770 
-15.554900 -10.177600 -5.603840 
-15.635900 -10.120700 -5.672300 
-15.728000 -10.063100 -5.743520 
-14.329400 -11.059200 -5.330050 
-14.092900 -11.158300 -5.235890 
-15.960800 -9.525480 -5.851630 
-14.560400 -10.908900 -5.505870 
-15.965200 -9.523290 -5.869350 
-15.369900 -10.035800 -5.705350 
-13.917100 -11.200800 -5.263740 
-13.683300 -11.301300 -5.196440 
-15.793800 -9.562780 -5.893600 
-14.468300 -10.887800 -5.645710 
-16.124100 -9.431690 -6.147330 
-14.805500 -10.707400 -5.867970 
-14.240400 -10.914300 -5.795560 
-14.957100 -10.554900 -6.153460 
-14.567700 -10.730700 -5.984900 
-16.360901 -9.164090 -6.520870 
-14.876100 -10.576200 -6.172680 
-13.752800 -11.071900 -5.774650 
-14.160000 -10.828400 -6.099710 
-14.388000 -10.714400 -6.260070 
-14.073300 -10.831300 -6.180640 
-14.648200 -10.519000 -6.489020 
-14.126800 -10.722200 -6.406810 
-15.557100 -9.976360 -7.170880 
-15.180400 -10.163500 -7.031900 
-14.780100 -10.374300 -6.880980 
-15.468400 -9.991900 -7.198060 
-13.319500 -11.060800 -6.183490 
-15.042800 -10.202700 -7.013970 
-14.932300 -10.240100 -7.022550 
-15.076900 -10.159700 -7.124910 
-14.150100 -10.635200 -6.719040 
-14.468500 -10.455600 -6.863220 
-14.970300 -10.206900 -7.123250 
-14.741400 -10.265100 -7.115650 
-14.762300 -10.263300 -7.133430 
-14.930600 -10.146400 -7.291800 
-13.873700 -10.547300 -7.132050 
-13.694500 -10.627100 -7.052060 
-13.083700 -10.869600 -6.970730 
-15.841200 -8.941000 -2.049480 
-15.592900 -9.017660 -2.050850 
-15.608400 -9.016560 -2.060750 
-15.157500 -9.149200 -2.100220 
-15.182300 -9.125650 -2.150420 
-15.210900 -9.057510 -2.308930 
-16.824301 -10.192100 -3.031910 
-17.141701 -10.026900 -3.224300 
-16.198601 -10.323300 -3.250240 
-14.382400 -11.083600 -2.740140 
-17.797701 -9.910290 -4.089440 
-17.772301 -9.896810 -4.164500 
-17.563101 -10.110100 -4.104160 
-14.867700 -10.760700 -3.243300 
-16.647900 -9.982080 -3.948640 
-17.756901 -9.868690 -4.601100 
-17.774900 -9.853500 -4.608320 
-17.733999 -9.869960 -4.616010 
-16.060200 -10.434100 -3.977000 
-15.967900 -10.454900 -4.011820 
-16.634600 -10.149800 -4.321440 
-15.655300 -10.767700 -4.040870 
-12.957700 -12.285000 -3.127480 
-13.523800 -11.937200 -3.597450 
-18.609600 -9.498970 -5.718050 
-15.434700 -10.579900 -4.373990 
-13.266400 -12.009700 -3.593190 
-12.994800 -12.156700 -3.494080 
-17.613600 -9.630530 -5.339630 
-14.738300 -10.862200 -4.111340 
-18.811501 -9.347080 -5.920180 
-12.991500 -12.136400 -3.507110 
-16.136999 -10.070200 -4.796450 
-13.105800 -12.013200 -3.727020 
-13.704800 -11.709200 -4.029780 
-15.028100 -10.752300 -4.511320 
-18.524799 -9.386490 -6.077390 
-14.289700 -11.447900 -4.308540 
-14.298800 -11.400100 -4.349030 
-13.755200 -11.665100 -4.136530 
-15.464800 -10.533500 -4.849000 
-13.950700 -11.534900 -4.336330 
-13.925100 -11.519100 -4.386580 
-18.250999 -9.397490 -6.279610 
-17.145300 -9.278940 -5.610930 
-14.228000 -11.360300 -4.568050 
-14.172600 -11.372900 -4.559270 
-13.120600 -11.864000 -4.116570 
-15.173300 -10.565800 -4.914230 
-16.825300 -9.577690 -5.603230 
-16.264500 -9.854230 -5.372360 
-18.469200 -9.251150 -6.520550 
-13.591000 -11.630500 -4.414780 
-17.125700 -9.198450 -5.719510 
-17.118900 -9.194840 -5.741710 
-17.236099 -9.161430 -5.850750 
-18.308701 -9.311270 -6.553040 
-16.433500 -9.716350 -5.596210 
-13.562000 -11.586000 -4.510630 
-14.138200 -11.284400 -4.807360 
-13.501100 -11.563300 -4.651550 
-14.868700 -10.831400 -5.420070 
-12.862700 -11.797400 -4.551210 
-13.085100 -11.690600 -4.692090 
-16.034901 -9.571420 -5.781270 
-13.534600 -11.451800 -4.933110 
-13.891300 -11.256800 -5.108720 
-16.067600 -9.511070 -5.865490 
-15.961600 -9.541220 -5.819510 
-14.943900 -10.662000 -5.853530 
-14.956900 -10.637200 -5.918480 
-16.727400 -9.064570 -6.464490 
-14.721800 -10.694500 -5.985320 
-13.343800 -11.220000 -5.753770 
-14.395300 -10.682400 -6.297700 
-15.243100 -10.248000 -6.740470 
-14.081700 -10.816400 -6.207640 
-15.332900 -10.180400 -6.813770 
-14.091900 -10.797700 -6.284230 
-14.922000 -10.323400 -6.816290 
-13.990800 -10.765600 -6.394860 
-14.879800 -10.330500 -6.842540 
-13.967500 -10.769300 -6.417010 
-13.973000 -10.768100 -6.512560 
-14.134300 -10.630300 -6.719450 
-14.146800 -10.606600 -6.733030 
-13.931700 -10.656300 -6.832900 
-14.124500 -10.522100 -6.968130 
-14.065900 -10.466900 -7.249370 
-16.939199 -10.166400 -3.773730 
-16.620501 -10.108700 -3.881450 
-15.489700 -10.498400 -3.434290 
-13.940700 -12.015500 -2.960640 
-13.941700 -12.010100 -2.982690 
-17.902201 -9.817730 -4.607490 
-16.621599 -9.970150 -4.051890 
-13.977200 -11.933400 -3.147960 
-17.769501 -9.761480 -4.698280 
-17.927500 -9.645040 -4.939270 
-16.179100 -10.300800 -4.235690 
-13.105100 -12.251700 -3.115010 
-12.115800 -12.646800 -2.711410 
-17.805901 -9.574060 -5.036050 
-14.759800 -10.817600 -3.766730 
-13.786800 -11.867900 -3.523450 
-15.214700 -10.910600 -4.063240 
-15.995800 -10.309200 -4.391160 
-18.320400 -9.681520 -5.440460 
-15.605700 -10.679200 -4.299890 
-13.835300 -11.794400 -3.672800 
-14.197500 -11.561200 -4.014780 
-15.573300 -10.592700 -4.511750 
-13.492800 -11.879900 -3.722600 
-15.537700 -10.603200 -4.529460 
-14.919000 -10.916800 -4.293820 
-14.202800 -11.487600 -4.267840 
-15.300600 -10.643000 -4.682890 
-16.920000 -9.661520 -5.318220 
-14.127900 -11.494600 -4.304430 
-16.325899 -9.922950 -5.176820 
-16.264601 -9.921680 -5.177680 
-17.183800 -9.284500 -5.593590 
-14.162500 -11.394300 -4.541510 
-13.980100 -11.462000 -4.517010 
-13.183700 -11.806200 -4.237680 
-18.316200 -9.322360 -6.529870 
-13.621900 -11.590700 -4.501920 
-13.589200 -11.593300 -4.498710 
-14.529400 -10.482800 -4.689940 
-14.550600 -10.465200 -4.702150 
-13.592200 -11.579800 -4.528060 
-18.417801 -9.229950 -6.631150 
-14.174800 -11.284000 -4.802610 
-14.524300 -10.456900 -4.735180 
-13.493700 -11.563300 -4.625530 
-13.386500 -11.618300 -4.598450 
-14.866200 -10.848100 -5.398290 
-16.049801 -9.610930 -5.702820 
-14.044600 -11.155500 -5.285350 
-16.346300 -9.399140 -6.100510 
-14.947900 -10.639800 -5.871230 
-14.933300 -10.633800 -5.930320 
-14.614600 -10.760900 -5.881140 
-13.674200 -11.129000 -5.708670 
-14.955900 -10.443300 -6.409810 
-14.639400 -10.549800 -6.427160 
-14.567900 -10.565700 -6.421430 
-15.054300 -10.280300 -6.803580 
-15.251900 -10.093200 -7.134640 
-14.971200 -10.206700 -7.059310 
-13.733800 -10.789800 -6.584500 
-13.792600 -10.772000 -6.652580 
-14.318100 -10.452400 -7.026490 
-13.488900 -10.739700 -6.938550 
-16.929600 -10.124900 -3.131460 
-16.737301 -10.196700 -3.109860 
-17.057199 -10.102900 -3.407070 
-17.013500 -10.104200 -3.415720 
-16.089600 -10.405100 -3.152080 
-17.643600 -10.196400 -3.813390 
-17.216600 -10.048500 -4.009990 
-14.386800 -11.024500 -2.889890 
-17.328199 -9.958030 -4.134310 
-14.646700 -10.798600 -3.397000 
-16.132900 -10.342800 -4.201670 
-16.210699 -10.287400 -4.246160 
-15.576300 -10.774400 -4.091630 
-15.231000 -10.914900 -4.039990 
-18.382401 -9.665700 -5.462280 
-16.606501 -10.032700 -4.653410 
-18.336201 -9.672290 -5.465540 
-18.409599 -9.643910 -5.500530 
-15.467700 -10.718400 -4.276240 
-18.567801 -9.502540 -5.739530 
-14.580600 -10.902300 -4.067400 
-17.812700 -9.376900 -5.409330 
-13.566900 -11.865200 -3.812770 
-16.162500 -10.094600 -4.786030 
-17.897800 -9.092390 -5.581390 
-15.292800 -10.673000 -4.658900 
-14.166700 -11.482300 -4.296940 
-16.788500 -9.713600 -5.303790 
-13.723900 -11.645100 -4.143290 
-16.890600 -9.638290 -5.440240 
-17.132700 -9.318500 -5.565080 
-17.216200 -9.280660 -5.598590 
-17.076099 -9.335400 -5.576860 
-17.097799 -9.259050 -5.673180 
-18.450701 -9.238780 -6.544030 
-17.027000 -9.233570 -5.748740 
-17.233999 -9.142740 -5.872860 
-18.359900 -9.256310 -6.625960 
-13.594100 -11.558500 -4.545000 
-18.328100 -9.264610 -6.649640 
-14.516900 -10.479900 -4.776080 
-16.290600 -9.756190 -5.596970 
-14.087900 -11.288600 -4.926760 
-13.857100 -11.400800 -4.850990 
-16.702801 -9.278770 -6.060790 
-14.338600 -11.072600 -5.256940 
-13.879200 -11.286100 -5.083460 
-13.368700 -11.528700 -4.888470 
-16.468201 -9.336530 -6.125170 
-15.932600 -9.537720 -5.875880 
-13.709800 -11.293400 -5.220070 
-16.078800 -9.466420 -6.126760 
-13.573800 -11.135000 -5.730700 
-14.962600 -10.419200 -6.471620 
-13.403600 -11.065600 -6.222670 
-13.976300 -10.706900 -6.621320 
-14.815000 -10.283600 -7.075590 
-13.148000 -10.850600 -7.004670 
-16.971399 -10.112900 -3.148180 
-16.065599 -10.357500 -3.297920 
-15.722300 -10.480600 -3.282730 
-17.246700 -9.952100 -4.222810 
-16.478701 -9.967980 -3.950230 
-13.939000 -11.986900 -3.067730 
-13.520900 -12.098400 -3.120970 
-16.159000 -10.329100 -4.192760 
-12.539500 -12.341200 -2.825390 
-16.206301 -10.276300 -4.278780 
-13.402400 -12.062200 -3.291710 
-13.346300 -12.069700 -3.402150 
-13.421300 -12.037100 -3.434090 
-13.357100 -12.054200 -3.436740 
-15.689200 -10.635100 -4.364880 
-13.346600 -12.037900 -3.548570 
-17.771200 -9.448350 -5.434060 
-17.937700 -9.171230 -5.548390 
-15.730600 -10.450800 -4.782390 
-13.199600 -11.858500 -4.125910 
-13.242000 -11.810400 -4.164230 
-17.232201 -9.187870 -5.696240 
-17.003300 -9.399120 -5.665500 
-18.349600 -9.268950 -6.561130 
-16.944599 -9.253840 -5.791570 
-15.988500 -9.658740 -5.689280 
-17.138500 -8.892980 -6.204100 
-13.749000 -11.277100 -5.224900 
-15.875800 -9.183100 -6.494100 
-15.173800 -10.253600 -6.746590 
-16.525499 -9.947040 -4.018020 
-13.510900 -12.139500 -3.089500 
-17.775200 -9.715890 -4.965930 
-12.895000 -12.306200 -3.120270 
-17.648199 -9.730820 -5.062040 
-15.558500 -10.474100 -4.933630 
-15.469700 -10.293500 -5.257340 
-16.911600 -9.321850 -5.806470 
-13.393100 -11.483500 -4.929170 
-15.175400 -9.895230 -5.940080 
-16.299500 -9.195500 -6.522300 
-14.443300 -10.591700 -6.493650 
-17.643600 -9.974570 -4.390010 
-15.063500 -10.654900 -3.386940 
-17.152201 -9.948660 -4.308570 
-16.547100 -10.057400 -4.774900 
-18.651400 -9.360920 -6.128630 
-15.778900 -10.249100 -5.306380 
-16.570700 -9.580260 -5.665750 
-13.487800 -11.606900 -4.522230 
-14.632000 -10.860500 -5.576590 
-15.375200 -9.517410 -6.532540 
-16.264000 -10.284500 -3.297800 
-16.124599 -10.346000 -3.299320 
-15.494700 -10.522900 -3.353630 
-14.424800 -10.844100 -3.471710 
-17.661699 -9.700510 -5.142380 
-14.630300 -10.879600 -4.081680 
-14.548600 -10.914700 -4.072060 
-17.795500 -9.311900 -5.471540 
-16.878099 -9.666510 -5.350120 
-13.367500 -11.259000 -5.669710 
-15.656400 -9.798510 -6.005810 
-12.585400 -12.362800 -2.998430 
-17.102100 -9.099450 -6.019570 
-17.718700 -9.667290 -4.978410 
-16.684900 -10.049700 -4.037020 
-16.260599 -10.307700 -4.162330 
-16.088100 -10.064800 -5.005440 
-15.244100 -10.326700 -5.184200 
-16.867399 -9.369640 -5.357640 
-14.881500 -10.197800 -7.172220 
-16.317801 -9.176250 -6.518170 
-15.182800 -10.172900 -6.987630 
-17.184500 -8.886150 -6.188100 
-18.447201 -9.256260 -6.521730 
-18.417700 -9.272340 -6.508530 
-14.886400 -10.378800 -6.694760 
-15.022200 -10.351300 -6.614110 
-14.381600 -10.624400 -6.472860 
-18.185699 -9.470770 -6.149890 
-18.464300 -9.400360 -6.122010 
-18.560699 -9.381110 -6.112920 
-18.582500 -9.377330 -6.106060 
-18.609800 -9.367210 -6.096710 
-16.063200 -9.541080 -5.783330 
-14.234800 -10.727000 -6.306300 
-14.019500 -10.807800 -6.320020 
-14.278800 -10.767400 -6.271980 
-14.872000 -10.597800 -6.068660 
-15.713700 -10.072400 -5.732070 
-14.174300 -10.874700 -5.951990 
-14.450700 -10.801900 -5.925150 
-15.110700 -10.598200 -5.862450 
-18.446199 -9.632910 -5.502960 
-14.209500 -10.927100 -5.778890 
-14.176800 -10.939000 -5.775500 
-15.551500 -10.251000 -5.394230 
-14.730700 -10.817500 -5.609440 
-15.552400 -10.316000 -5.236310 
-17.736099 -9.660530 -5.064230 
-17.948700 -9.632510 -4.924570 
-14.049300 -11.144700 -5.287160 
-15.513000 -10.527900 -4.783760 
-16.640400 -9.928260 -4.415500 
-15.916800 -10.276000 -4.527560 
-16.111000 -10.220400 -4.506670 
-15.931800 -10.274900 -4.516260 
-17.118000 -9.932040 -4.396050 
-16.536501 -10.234600 -4.401030 
-13.636500 -11.461700 -4.814280 
-14.341000 -11.285400 -4.640190 
-16.185801 -10.296400 -4.248250 
-15.755400 -10.626400 -4.305480 
-17.545401 -10.105600 -4.124610 
-17.740700 -9.953570 -4.063810 
-15.801900 -10.622400 -4.292160 
-16.229099 -10.250200 -3.984700 
-17.061399 -10.131500 -3.920020 
-17.229000 -10.080300 -3.899600 
-16.833799 -10.099200 -3.894290 
-17.050501 -10.135500 -3.909920 
-14.195800 -11.432000 -4.376230 
-13.049900 -11.795000 -4.430210 
-13.123400 -11.843800 -4.157220 
-13.501800 -11.764500 -4.060870 
-15.851900 -10.395500 -3.389910 
-15.908100 -10.377300 -3.369610 
-15.622700 -10.481800 -3.384360 
-16.073400 -10.367300 -3.258630 
-13.362000 -11.906700 -3.789850 
-16.947701 -10.124100 -3.134900 
-14.709400 -10.789000 -3.344510 
-12.959400 -12.105000 -3.623190 
-13.916600 -11.876000 -3.391900 
-13.967200 -11.947400 -3.126270 
-13.970400 -12.010900 -2.970350 
-15.172700 -9.143930 -2.102150 
-15.619200 -9.055040 -1.933100 
-15.612600 -9.059940 -1.924960 
-15.466200 -9.991360 -7.197510 
-14.955000 -10.192100 -7.157140 
-12.858900 -10.829600 -7.214820 
-16.287399 -9.177210 -6.515540 
-16.369200 -9.166990 -6.518480 
-14.890400 -10.330900 -6.812730 
-15.207700 -10.253200 -6.746900 
-18.384899 -9.267970 -6.536910 
-18.518999 -9.245520 -6.511170 
-16.430901 -9.323050 -6.190570 
-18.207399 -9.350620 -6.508950 
-18.794901 -9.186520 -6.401070 
-18.584499 -9.276030 -6.409230 
-14.203300 -10.618900 -6.621640 
-13.843600 -10.743300 -6.637210 
-13.743500 -10.775000 -6.631130 
-14.634900 -10.526600 -6.475770 
-14.038600 -10.808000 -6.305210 
-14.130500 -10.779700 -6.290540 
-14.087300 -10.883500 -6.041170 
-18.607100 -9.495810 -5.717380 
-14.687000 -10.701700 -5.970030 
-13.902200 -10.946500 -5.989810 
-14.124700 -10.902900 -5.978980 
-18.523899 -9.589900 -5.524370 
-15.557100 -10.226100 -5.464390 
-13.758400 -11.077400 -5.763040 
-13.321900 -11.216300 -5.736820 
-14.703100 -10.827100 -5.615630 
-17.734501 -9.735160 -4.954210 
-14.302900 -11.064400 -5.308350 
-16.171400 -10.107700 -4.733000 
-13.294500 -11.544100 -4.894400 
-17.787500 -9.918930 -4.091440 
-15.277200 -10.786900 -4.342180 
-13.472300 -11.581600 -4.599850 
-16.090099 -10.372400 -4.123930 
-13.442900 -11.609900 -4.563940 
-16.307199 -10.202600 -4.003250 
-17.191200 -10.082400 -3.923270 
-15.580900 -10.738300 -4.158480 
-17.722000 -10.125600 -3.927310 
-15.965300 -10.456700 -4.010700 
-17.755199 -10.135300 -3.892270 
-13.038700 -11.767300 -4.454420 
-14.618500 -10.907000 -4.126190 
-13.937800 -11.533100 -4.366110 
-13.056800 -11.787000 -4.444520 
-13.960600 -11.528100 -4.344160 
-13.611900 -11.651100 -4.385560 
-14.090700 -11.497300 -4.324200 
-17.680099 -10.181500 -3.815370 
-14.688900 -10.909800 -3.949630 
-14.163000 -11.545000 -4.095310 
-14.198900 -11.551600 -4.082350 
-17.063101 -10.037600 -3.267420 
-15.203500 -10.572600 -3.460380 
-16.456699 -10.218600 -3.319750 
-14.681400 -10.732900 -3.509460 
-16.198500 -10.323600 -3.246940 
-17.133400 -10.066400 -3.134730 
-16.794100 -10.160700 -3.159010 
-13.832000 -11.793800 -3.666260 
-13.606700 -11.927500 -3.488710 
-13.267600 -12.119900 -3.275220 
-13.362900 -12.130500 -3.172300 
-15.398000 -9.002720 -2.292740 
-15.204200 -9.063040 -2.302840 
-15.604600 -8.955880 -2.221650 
-13.644500 -12.085200 -3.063280 
-15.601000 -9.056250 -1.951830 
-13.534000 -10.617200 -7.276960 
-15.160000 -10.220600 -6.872700 
-13.876700 -10.640000 -6.879650 
-13.551600 -10.752900 -6.838530 
-18.416201 -9.271660 -6.474430 
-18.228100 -9.352430 -6.484380 
-16.109900 -9.441860 -6.152140 
-15.459500 -10.219200 -6.602880 
-17.227699 -9.172590 -5.743760 
-15.957900 -9.591130 -5.780310 
-18.718700 -9.380880 -5.957700 
-13.369700 -11.015000 -6.279790 
-17.177900 -9.286560 -5.592320 
-14.534100 -10.702400 -6.055560 
-17.813601 -9.312870 -5.463040 
-16.702999 -9.709580 -5.371260 
-14.820200 -10.783200 -5.634440 
-15.554000 -10.281900 -5.314910 
-15.502100 -10.340500 -5.213880 
-16.743601 -9.901110 -4.924280 
-14.539700 -10.486400 -4.750210 
-17.167200 -9.920930 -4.378910 
-17.327600 -9.878540 -4.360310 
-13.972700 -11.334500 -4.850540 
-17.726900 -9.969440 -4.278090 
-16.090000 -10.278000 -4.349650 
-14.160100 -11.392700 -4.536580 
-13.426300 -11.599800 -4.590110 
-13.630400 -11.584900 -4.500540 
-15.963800 -10.444000 -4.037280 
-16.646900 -10.089600 -3.892150 
-13.915300 -11.524600 -4.389490 
-13.901300 -11.533900 -4.370210 
-13.976200 -11.529600 -4.360000 
-13.577500 -11.632600 -4.396010 
-14.195000 -11.486000 -4.266440 
-16.090599 -10.465300 -3.869100 
-14.696500 -10.887400 -4.009210 
-13.812000 -11.606300 -4.209010 
-13.719300 -11.638300 -4.150720 
-13.181200 -11.871300 -4.093300 
-14.749800 -10.808500 -3.691010 
-13.994500 -11.674600 -3.877620 
-16.593901 -10.180900 -3.318460 
-14.675900 -10.752300 -3.480390 
-13.473600 -11.844100 -3.825120 
-15.470800 -10.580600 -3.221370 
-14.838500 -10.764000 -3.287210 
-16.984699 -10.054400 -2.964100 
-17.025000 -10.039700 -2.957290 
-13.216500 -11.998900 -3.658090 
-12.986200 -12.144200 -3.510890 
-13.097200 -12.144300 -3.339680 
-13.653400 -12.003100 -3.221920 
-15.734500 -8.905690 -2.244090 
-15.219700 -9.059700 -2.311490 
-13.391400 -12.129900 -3.153620 
-13.550200 -12.118500 -3.065410 
-14.347000 -11.097700 -2.753850 
-13.706800 -12.087000 -2.968420 
-15.609000 -9.005650 -2.059450 
-15.313300 -9.098490 -2.101290 
-15.198800 -9.144620 -2.088260 
-12.518100 -12.342000 -2.851810 
-15.064400 -9.211110 -1.751000 
-13.030000 -10.759600 -7.355610 
-15.167100 -10.151800 -7.054610 
-18.279100 -9.347430 -6.513020 
-14.822100 -10.403200 -6.671750 
-15.931500 -9.531690 -5.872280 
-14.342000 -10.706900 -6.304870 
-12.916900 -11.203900 -6.159450 
-14.934400 -10.660900 -5.872630 
-15.607800 -10.168100 -5.613380 
-18.474899 -9.630400 -5.485890 
-18.322001 -9.663310 -5.458320 
-14.809500 -10.800500 -5.618210 
-17.844801 -9.740660 -4.838520 
-14.238800 -11.101100 -5.234460 
-15.999700 -10.119400 -4.802600 
-13.850700 -11.245900 -5.189510 
-17.080299 -9.848980 -4.638280 
-16.130800 -10.134000 -4.712280 
-14.557400 -10.502900 -4.687160 
-17.822399 -9.886980 -4.487680 
-15.500000 -10.618300 -4.510340 
-15.615700 -10.590300 -4.452610 
-15.960000 -10.360000 -4.273660 
-15.960200 -10.368500 -4.250460 
-17.080700 -10.042300 -4.137460 
-13.525600 -11.577000 -4.597150 
-16.522600 -9.985060 -3.906240 
-13.867100 -11.526200 -4.404800 
-16.296801 -10.263800 -3.330980 
-15.278000 -10.590500 -3.399790 
-13.521300 -11.868100 -3.755160 
-16.733900 -10.192400 -3.106400 
-13.361800 -11.978100 -3.609000 
-12.523200 -12.394900 -2.703570 
-14.825400 -10.263800 -7.059400 
-16.194401 -9.191620 -6.291730 
-15.146700 -10.221500 -6.887590 
-18.206499 -9.339870 -6.510130 
-14.879100 -10.477600 -6.394620 
-18.712299 -9.329450 -6.071820 
-17.099800 -9.205300 -5.746000 
-16.082199 -9.527980 -5.791850 
-13.080700 -11.076300 -6.358680 
-13.650200 -10.909100 -6.290890 
-16.340000 -9.729020 -5.596790 
-14.303400 -10.811900 -5.985700 
-13.945200 -11.129000 -5.472490 
-14.027300 -11.228900 -5.175510 
-17.806999 -9.853260 -4.594070 
-14.633900 -10.500500 -4.653480 
-13.022300 -11.582200 -5.004290 
-13.113900 -11.560700 -4.995180 
-16.587500 -10.112900 -3.871410 
-16.041599 -10.484800 -3.863590 
-14.107500 -11.504100 -4.226790 
-17.354401 -10.012600 -3.350810 
-13.467000 -11.845200 -3.886670 
-13.521400 -11.874200 -3.850030 
-13.454500 -11.880400 -3.773170 
-16.091900 -10.404100 -3.150950 
-13.004200 -12.287800 -3.040600 
-14.893200 -10.314600 -6.841310 
-14.446200 -10.795400 -5.955350 
-13.726300 -11.097600 -5.737070 
-16.038401 -10.201000 -4.609640 
-16.455099 -10.090200 -4.475780 
-14.691000 -10.904600 -3.989510 
-13.204300 -11.851200 -4.124420 
-15.039200 -10.670400 -3.362070 
-16.351299 -10.295100 -3.209360 
-13.364900 -12.104000 -2.809870 
-15.698000 -9.320790 -6.368990 
-15.192700 -10.233000 -6.819660 
-17.783800 -9.704360 -4.956380 
-17.159599 -10.109700 -3.867540 
-15.947800 -10.465600 -4.001110 
-16.604601 -9.655420 -5.582630 
-16.581200 -9.891420 -5.003240 
-16.155399 -10.277000 -4.336500 
-15.590400 -10.714600 -4.229590 
-15.570800 -10.454700 -3.493150 
-14.435600 -10.835100 -3.474680 
-15.637600 -10.471500 -3.342460 
-13.843400 -12.035100 -3.079750 
-16.136999 -10.311800 -4.019670 
-16.550400 -10.091700 -4.140150 
-16.547300 -9.454810 -5.766580 
-17.082800 -9.266890 -5.666840 
-15.841200 -9.862900 -5.495310 
-15.154200 -9.229370 -1.739160 
-16.644699 -10.002100 -4.611200 
-17.117901 -10.147500 -3.799200 
-18.381001 -9.265480 -6.534680 
-18.563200 -9.377270 -6.111470 
-18.744900 -9.371900 -5.959300 
-18.543100 -9.382590 -6.109730 
-16.727800 -9.054680 -6.474120 
-18.391100 -9.732370 -5.240820 
-17.742701 -9.613290 -5.149010 
-15.480900 -9.997150 -7.184220 
-17.622101 -9.694220 -5.137460 
-15.316600 -10.054700 -7.197220 
-18.133499 -9.669890 -4.663680 
-16.063499 -9.509790 -5.830420 
-16.009001 -9.530620 -5.843060 
-15.956600 -9.524600 -5.869850 
-15.093800 -10.153700 -7.126770 
-15.096900 -10.177800 -7.017760 
-15.247300 -10.225500 -6.798870 
-15.199000 -10.282800 -6.673150 
-17.108999 -9.864130 -4.612730 
-17.764200 -9.906150 -4.139710 
-17.196899 -9.904950 -4.393290 
-14.985900 -10.421800 -6.455610 
-14.970300 -10.424900 -6.451730 
-14.970000 -10.435800 -6.440880 
-17.563999 -10.111900 -4.106520 
-17.287800 -9.965790 -4.146020 
-17.305599 -9.969030 -4.132140 
-14.846400 -10.509700 -6.386870 
-15.492900 -10.218800 -5.439460 
-17.198500 -10.090400 -3.900520 
-17.058901 -10.125500 -3.915930 
-17.051800 -10.138300 -3.909490 
-15.944400 -10.271900 -4.523710 
-16.617100 -10.124100 -3.868540 
-13.703800 -10.784200 -6.649390 
-17.129299 -10.032200 -3.226740 
-13.707600 -10.841100 -6.454770 
-16.958000 -10.114700 -3.142670 
-16.110701 -10.403900 -4.016450 
-15.821700 -10.623000 -4.283890 
-14.713800 -10.947000 -5.285270 
-16.460600 -10.218700 -3.319570 
-15.570400 -10.748500 -4.146450 
-13.341400 -11.112300 -6.098700 
-16.233101 -10.325800 -3.217930 
-15.923000 -10.366100 -3.382140 
-16.066000 -10.368800 -3.260950 
-13.811200 -11.234000 -5.268910 
-15.605700 -8.955170 -2.222920 
-15.616700 -9.048570 -1.945990 
-15.187900 -9.068860 -2.293000 
-13.984800 -11.441400 -4.554100 
-13.824800 -11.493800 -4.573820 
-13.766800 -11.490500 -4.598240 
-12.844700 -11.571400 -5.206370 
-13.366500 -11.663900 -4.441580 
-14.002900 -11.708900 -3.824650 
-13.866000 -11.850400 -3.485320 
-13.302400 -11.997500 -3.596570 
-18.539301 -9.276170 -6.461760 
-18.204100 -9.350350 -6.505890 
-18.189199 -9.358820 -6.496650 
-17.975700 -9.486090 -6.320670 
-17.011299 -9.253990 -5.747600 
-17.738701 -9.666110 -5.068490 
-17.729700 -9.738300 -4.954670 
-15.958100 -9.570260 -5.784730 
-16.415701 -9.714580 -5.610420 
-15.038100 -10.188000 -7.031700 
-14.828300 -10.236900 -7.132820 
-17.706900 -9.934310 -4.461730 
-14.840600 -10.342100 -6.857480 
-14.862300 -10.335700 -6.825040 
-14.902200 -10.358800 -6.737160 
-14.264000 -10.395400 -7.178870 
-17.033501 -9.952280 -4.418500 
-17.224400 -9.950700 -4.258230 
-17.544901 -10.106700 -4.123790 
-14.418100 -10.508100 -6.773910 
-17.228001 -10.081400 -3.898590 
-16.625000 -10.143700 -4.340770 
-15.553500 -10.299800 -5.267750 
-15.069700 -10.609200 -5.868530 
-15.015800 -10.649300 -5.880400 
-13.251800 -10.717900 -7.211320 
-13.598100 -10.741700 -6.861530 
-16.604200 -10.066000 -3.885960 
-14.149900 -10.750600 -6.304200 
-14.051300 -10.799400 -6.298440 
-14.869600 -10.783600 -5.569020 
-15.464200 -10.536100 -4.848950 
-16.080200 -10.388200 -4.105790 
-16.001499 -10.397700 -4.152660 
-14.116000 -10.893900 -6.002770 
-16.131901 -10.409600 -3.993020 
-16.079800 -10.434100 -3.985800 
-16.679199 -10.198200 -3.190950 
-15.144200 -10.651200 -4.689320 
-16.514900 -10.234700 -3.274090 
-16.514999 -10.248300 -3.200910 
-13.137000 -11.112200 -6.218530 
-15.895600 -10.427900 -3.266220 
-14.082400 -11.289800 -4.875270 
-15.543100 -9.010820 -2.133510 
-14.196600 -11.381500 -4.560630 
-15.600500 -9.055750 -1.952960 
-13.570100 -11.445700 -4.937470 
-14.682000 -10.731300 -3.514080 
-14.057100 -11.639900 -3.962610 
-12.860500 -12.299400 -3.164750 
-18.590099 -9.336600 -6.170010 
-17.880600 -9.197070 -5.528860 
-17.042700 -9.235520 -5.761500 
-17.162901 -9.264800 -5.607680 
-16.931601 -9.655090 -5.299350 
-15.787800 -9.556300 -5.908760 
-15.842800 -9.574450 -5.872930 
-16.750799 -9.764900 -5.297910 
-17.985001 -9.848990 -4.449660 
-17.754299 -9.920440 -4.455700 
-17.827999 -9.926490 -4.289070 
-16.276100 -9.900010 -5.205920 
-17.532400 -10.120400 -4.105120 
-14.760200 -10.507500 -6.389250 
-15.551800 -10.281700 -5.312680 
-13.560400 -10.676800 -7.059960 
-14.982600 -10.632500 -5.911970 
-14.014000 -10.796000 -6.322050 
-17.069000 -10.030800 -3.264890 
-14.776700 -10.785300 -5.663370 
-13.745200 -10.882500 -6.367970 
-13.738800 -10.880900 -6.342430 
-15.998900 -10.439700 -4.017990 
-15.630900 -10.619500 -4.423290 
-13.340900 -10.999700 -6.358710 
-15.189200 -10.806700 -4.267040 
-15.696800 -10.490900 -3.251210 
-15.584700 -10.508100 -3.295450 
-14.083000 -11.257400 -4.978160 
-14.951800 -10.680400 -3.431910 
-15.084000 -10.672300 -3.312520 
-13.113500 -11.529100 -5.095570 
-13.461700 -11.600600 -4.586510 
-13.993900 -11.656900 -3.876390 
-14.055400 -11.985500 -2.961910 
-13.293000 -12.080800 -3.406110 
-13.099100 -12.210400 -3.212540 
-18.412500 -9.227500 -6.622670 
-18.351400 -9.249850 -6.619440 
-18.403299 -9.263760 -6.520700 
-17.083000 -9.215720 -5.723210 
-17.219900 -9.293500 -5.547820 
-17.080000 -9.328240 -5.609660 
-15.954500 -9.541830 -5.856990 
-16.315500 -9.741550 -5.585450 
-16.071699 -9.616310 -5.614670 
-17.240499 -9.815030 -4.590630 
-17.811001 -9.934430 -4.255570 
-16.234501 -9.861860 -4.962810 
-17.004200 -10.055800 -4.173150 
-13.433600 -10.628600 -7.304810 
-17.206900 -10.079200 -3.913690 
-17.277100 -10.083600 -3.859860 
-15.998700 -10.219700 -4.632700 
-15.542100 -10.377700 -5.050220 
-16.723101 -10.090600 -3.875360 
-13.794000 -10.755700 -6.649780 
-16.210199 -10.292100 -4.232500 
-15.994700 -10.389600 -4.148680 
-16.083099 -10.404200 -4.036760 
-15.561600 -10.593600 -4.509490 
-15.740100 -10.696200 -4.083230 
-14.581900 -10.471400 -4.728130 
-14.519800 -10.466100 -4.755920 
-14.919900 -10.910100 -4.289800 
-15.475000 -10.546700 -3.283140 
-15.205500 -10.569500 -3.454470 
-14.850500 -10.735800 -3.352600 
-14.578100 -10.753000 -3.520420 
-14.810800 -9.697840 -2.224970 
-13.450800 -11.980600 -3.587800 
-13.965900 -11.991800 -3.056250 
-13.310500 -12.181100 -3.059240 
-18.590599 -9.252560 -6.445350 
-17.829901 -9.181720 -5.637700 
-17.609200 -9.643250 -5.352350 
-15.265700 -10.055100 -7.215740 
-16.795300 -9.647730 -5.481830 
-16.731100 -9.952910 -5.143620 
-17.188299 -9.811370 -4.617650 
-16.629200 -9.856250 -4.994900 
-16.204500 -9.948700 -5.107550 
-17.629801 -10.195600 -3.823170 
-17.155100 -10.058200 -4.004560 
-15.954800 -10.192700 -4.729160 
-16.973000 -10.183500 -3.853440 
-17.059999 -10.113000 -3.412830 
-16.175200 -10.250200 -3.998800 
-15.958000 -10.372600 -4.248140 
-15.545900 -10.556900 -4.450440 
-16.943800 -10.068200 -2.937230 
-15.789300 -10.705200 -4.032730 
-15.393100 -10.701600 -4.340590 
-16.123699 -10.304500 -3.391690 
-13.626900 -11.622600 -4.397280 
-13.567700 -11.917600 -3.652460 
-13.357000 -11.974500 -3.593610 
-12.514400 -12.408100 -2.668840 
-18.348301 -9.287500 -6.558390 
-18.340599 -9.294290 -6.473950 
-17.892099 -9.216870 -5.614210 
-17.092300 -9.207250 -5.758470 
-17.779200 -9.715820 -4.974910 
-14.224700 -10.641200 -6.547940 
-16.535101 -9.944150 -4.017460 
-16.804899 -10.097800 -3.901700 
-14.251800 -11.352400 -4.572930 
-13.593400 -12.059700 -3.143420 
-17.392599 -9.218450 -5.743780 
-16.189301 -9.457750 -5.818140 
-16.667299 -9.877100 -4.957480 
-15.745800 -10.265400 -5.299810 
-16.229300 -10.324900 -3.208170 
-15.600800 -10.375100 -5.118120 
-14.890300 -9.544540 -2.186760 
-13.846400 -11.998600 -3.077940 
-17.668501 -10.066900 -4.067700 
-15.546300 -10.489400 -4.946510 
-15.188600 -10.876300 -4.180430 
-13.686100 -11.575500 -4.501460 
-17.385500 -9.760860 -4.879230 
-15.750100 -9.766170 -5.908720 
-14.837800 -10.859700 -3.822630 
-17.706301 -9.687110 -5.043240 
-16.878201 -9.953200 -4.598700 
-16.593800 -10.009900 -4.619400 
-18.970501 -9.158350 -6.341060 
-18.564301 -9.287290 -6.363070 
-18.578300 -9.377310 -6.108440 
-18.358999 -9.716840 -5.294300 
-17.837200 -9.314520 -5.440950 
-17.747299 -9.588070 -5.225900 
-16.785400 -9.040620 -6.476510 
-17.205500 -9.962850 -4.239470 
-16.358900 -9.371900 -6.126510 
-17.030199 -9.969270 -4.385260 
-16.794500 -9.914340 -4.747880 
-16.592501 -9.848480 -4.979690 
-16.125799 -9.484610 -5.849310 
-16.945601 -10.127000 -3.132530 
-16.120001 -9.500640 -5.797370 
-16.596901 -10.148700 -4.334990 
-15.841500 -8.949360 -2.026340 
-16.150299 -10.206900 -4.505140 
-15.604300 -8.956020 -2.223460 
-15.333600 -10.046900 -7.206500 
-15.690400 -10.193500 -5.558470 
-15.918800 -10.286300 -4.506730 
-16.064800 -10.421700 -4.002330 
-15.515100 -10.325100 -5.231470 
-15.859800 -10.393300 -3.381780 
-15.202200 -10.273100 -6.686820 
-15.198500 -10.283800 -6.669490 
-15.314500 -9.078420 -2.151130 
-15.839500 -10.398500 -3.381420 
-15.661800 -10.537200 -4.647830 
-15.073500 -10.266100 -6.828670 
-15.220500 -9.136640 -2.102310 
-15.446300 -10.567000 -4.353250 
-15.574800 -10.749500 -4.150640 
-14.785400 -10.329300 -6.932900 
-14.709000 -10.460800 -6.631210 
-14.645100 -10.519800 -6.491140 
-14.634900 -10.527500 -6.479150 
-14.870100 -10.784200 -5.570640 
-14.715300 -10.947300 -5.285300 
-14.778900 -10.842000 -3.802270 
-14.755400 -10.835500 -3.844410 
-14.591500 -10.752100 -3.537970 
-14.001900 -11.506200 -4.369570 
-18.820900 -9.386370 -5.821590 
-18.586201 -9.332210 -6.213070 
-18.329100 -9.275160 -6.620070 
-18.310499 -9.311430 -6.552300 
-17.246500 -9.164570 -5.854690 
-17.255800 -9.187500 -5.826770 
-17.050200 -9.268880 -5.711070 
-17.012501 -9.252150 -5.744470 
-17.757200 -10.132500 -3.887050 
-16.404699 -9.141930 -6.521540 
-16.750601 -9.925510 -4.783840 
-16.656401 -9.844330 -4.968290 
-16.110901 -9.476070 -5.859610 
-16.760099 -10.053400 -3.900100 
-16.644199 -9.992430 -3.931010 
-16.608200 -9.966440 -4.063540 
-16.046900 -9.609170 -5.608250 
-15.772000 -9.564610 -5.923940 
-15.866200 -8.939100 -2.011240 
-15.731600 -9.029720 -1.899640 
-16.079201 -10.391000 -4.106940 
-16.004299 -10.396900 -4.149190 
-15.238400 -9.839810 -5.878330 
-15.940500 -10.358700 -3.402580 
-15.908400 -10.536500 -3.855570 
-15.758900 -10.624900 -4.315200 
-14.936200 -10.186700 -7.165200 
-15.172300 -9.111470 -2.183220 
-14.824600 -10.239900 -7.134130 
-15.457200 -10.619100 -4.524430 
-15.445900 -10.558200 -4.390860 
-15.170600 -10.563400 -4.916880 
-15.008900 -10.656700 -5.888960 
-15.062700 -9.234130 -1.861700 
-14.800200 -10.538600 -6.343000 
-15.226400 -10.898000 -4.076510 
-15.205100 -10.905000 -4.058550 
-14.768100 -10.730100 -5.824020 
-14.862700 -10.848600 -5.388530 
-14.904100 -10.928900 -4.288090 
-14.079700 -10.449400 -7.239460 
-14.329700 -10.739700 -6.271310 
-14.526600 -10.887300 -5.606640 
-14.134400 -10.626700 -6.714440 
-14.756300 -10.837400 -3.821430 
-14.566400 -10.754500 -4.485270 
-14.079200 -10.800500 -6.281030 
-13.620100 -10.821100 -6.611940 
-14.217400 -11.351500 -4.596470 
-14.220800 -11.384600 -4.550300 
-13.973100 -11.471000 -4.515510 
-13.709900 -11.286000 -5.270520 
-13.563400 -11.361600 -5.214750 
-13.568400 -11.446300 -4.938170 
-13.994200 -12.011800 -2.957210 
-18.805201 -9.391760 -5.830450 
-18.587500 -9.343250 -6.175720 
-17.837999 -9.108800 -5.649160 
-18.086500 -9.526620 -6.165140 
-17.082899 -9.219650 -5.707150 
-17.341299 -9.515000 -4.864100 
-17.093100 -9.314610 -5.606190 
-16.894300 -9.244290 -5.807860 
-17.029400 -9.333680 -5.521050 
-16.845600 -9.604020 -5.512470 
-17.218399 -10.091000 -3.884180 
-17.057301 -10.044900 -4.149340 
-16.848200 -9.929130 -4.620700 
-16.091600 -9.501970 -5.822660 
-16.573700 -9.979030 -3.885670 
-16.316900 -9.893810 -5.227360 
-16.651699 -10.136000 -3.849340 
-15.959600 -9.596700 -5.781690 
-16.413401 -10.066400 -3.927850 
-15.541200 -9.073230 -1.968660 
-14.908400 -10.319600 -6.840130 
-14.982900 -10.634900 -5.914370 
-14.721900 -10.483500 -6.577120 
-14.644300 -10.543700 -6.455970 
-14.570900 -10.887500 -4.127760 
-14.586900 -10.899100 -4.076700 
-14.562400 -10.889000 -4.101780 
-13.568400 -10.811900 -6.739190 
-14.173200 -11.289500 -4.803510 
-14.290700 -11.447200 -4.277280 
-13.678700 -11.113700 -5.730820 
-13.946100 -11.477600 -4.493510 
-13.529800 -11.271000 -5.466920 
-13.089500 -10.914400 -6.825700 
-13.067100 -10.938000 -6.758040 
-13.543600 -11.351500 -5.224320 
-13.730600 -11.650200 -4.146260 
-13.133800 -11.504700 -5.180060 
-13.496900 -11.878500 -3.723260 
-12.971000 -12.165900 -3.465380 
-18.948900 -9.146100 -6.388140 
-18.718100 -9.354890 -6.058940 
-18.328501 -9.264510 -6.657240 
-18.020800 -9.517900 -6.201390 
-17.201799 -9.806100 -4.611370 
-16.659700 -9.933610 -5.153680 
-16.312000 -9.774790 -5.534190 
-16.356899 -9.848360 -5.303090 
-15.895300 -9.660030 -5.756220 
-16.332899 -10.261100 -3.318620 
-16.003401 -10.308500 -4.361790 
-15.704100 -10.561300 -3.588790 
-15.660700 -10.766600 -4.031580 
-14.826900 -9.602520 -2.427790 
-14.581800 -10.893800 -5.525050 
-14.077200 -10.819600 -6.199230 
-14.333900 -11.017100 -2.980820 
-14.376000 -11.065200 -2.775470 
-14.027100 -11.620600 -4.051290 
-13.971400 -11.990000 -3.053120 
-13.134300 -11.355000 -5.545600 
-13.444600 -11.981600 -3.583450 
-13.375000 -11.983100 -3.600980 
-12.986600 -12.105000 -3.641420 
-12.930100 -12.288500 -3.111540 
-18.378700 -9.254780 -6.562050 
-18.343500 -9.276300 -6.545600 
-16.815901 -9.620340 -5.508840 
-17.076500 -9.858320 -4.630470 
-17.337900 -10.124800 -3.649010 
-15.915900 -9.549750 -5.896930 
-15.965500 -10.205500 -4.691600 
-15.720000 -10.478200 -3.276880 
-15.017000 -9.264370 -2.253600 
-14.803500 -10.787300 -5.618630 
-14.573300 -10.455700 -4.793580 
-14.581200 -10.468100 -4.758020 
-14.236000 -11.548300 -4.039750 
-13.998600 -11.659400 -3.903130 
-14.019400 -11.923700 -3.129500 
-13.512700 -11.928400 -3.634820 
-13.049300 -11.713600 -4.590330 
-12.955500 -12.117000 -3.597670 
-12.543500 -12.340600 -2.827300 
-17.534201 -9.252130 -5.796280 
-16.299500 -10.263200 -3.354410 
-16.089100 -10.238500 -4.477470 
-16.032400 -10.373400 -4.163470 
-15.204200 -9.179340 -1.977540 
-14.850200 -10.722000 -3.391940 
-13.722800 -11.089600 -5.751850 
-13.954400 -11.489700 -4.472770 
-13.973000 -11.623700 -4.101140 
-13.161600 -11.499400 -5.158140 
-12.858400 -12.310800 -2.679220 
-18.516899 -9.315020 -6.364090 
-17.866899 -9.431710 -5.109920 
-17.536900 -9.334080 -5.709710 
-16.328501 -9.938280 -5.196700 
-16.204500 -10.211400 -4.443060 
-16.240000 -10.232100 -3.988930 
-13.494600 -11.576800 -4.611010 
-16.749300 -9.916790 -4.826510 
-16.642700 -9.892050 -4.797700 
-15.862800 -9.575130 -5.913450 
-12.529100 -12.358200 -2.767550 
-16.275400 -10.337500 -3.831450 
-12.454900 -12.461900 -2.699330 
-16.759899 -9.790470 -5.273860 
-15.965900 -9.924090 -5.173400 
-15.993800 -10.347600 -3.342200 
-17.083799 -9.485890 -5.209580 
