ply
format ascii 1.0
comment VCGLIB generated
element vertex 854
property float x
property float y
property float z
property float nx
property float ny
property float nz
element face 0
property list uchar int vertex_indices
end_header
-20.2041 -10.3772 -2.50923 0.2907 0.955204 -0.0554936 
-17.8321 -10.4965 -2.14019 0.339814 0.227685 0.912516 
-15.161 -11.9417 -2.02189 0.340479 0.930103 0.137774 
-20.0332 -10.4376 -2.4327 0.33077 0.943369 -0.0254054 
-19.2177 -10.6924 -2.22418 0.335094 0.942083 -0.0138622 
-19.2467 -10.6815 -2.22182 0.355738 0.933142 0.0519355 
-19.2169 -10.6988 -2.20463 0.302541 0.953124 0.00476551 
-19.0525 -10.7492 -2.17471 0.313515 0.948612 -0.0429355 
-17.8161 -10.6373 -1.9168 0.424152 0.903506 -0.0614188 
-19.1117 -10.7173 -2.0228 0.279638 0.959585 -0.0315961 
-18.7587 -10.838 -1.86771 0.302402 0.951767 0.0518994 
-19.1257 -10.7183 -1.8884 0.249164 0.968354 0.0144062 
-16.3268 -11.0779 -1.60439 0.234756 0.971937 0.0150929 
-18.7998 -10.8185 -1.85043 0.274972 0.958693 0.0727847 
-19.4535 -10.6242 -1.862 0.345501 0.935244 0.0771266 
-20.3758 -10.3028 -1.89263 0.316124 0.948717 -0.0014708 
-20.6339 -10.236 -1.88377 0.440549 0.895907 0.0571577 
-20.542 -10.2667 -1.85456 0.275168 0.960639 0.0381406 
-18.8851 -10.7858 -1.60984 0.358006 0.933706 0.00504415 
-19.6034 -10.56 -1.63454 0.407044 0.912418 0.0425319 
-15.3303 -11.5513 -1.33579 0.0822352 0.925209 0.370441 
-20.0836 -10.3999 -1.6111 0.0499473 0.992943 0.107562 
-20.37 -10.3076 -1.56412 0.273277 0.961638 -0.0239213 
-16.7187 -10.9594 -1.29898 0.062193 0.95159 0.301014 
-17.7331 -10.8145 -1.37581 0.499818 0.851843 0.15667 
-16.7957 -10.9896 -1.25846 -0.0776302 0.994921 0.0640737 
-19.5991 -10.57 -1.32636 0.788012 0.609629 0.0859658 
-18.077 -10.7142 -1.21139 0.760814 0.519572 0.388853 
-20.5304 -10.2574 -1.09076 0.301975 0.953089 0.0207786 
-20.5281 -10.2542 -1.07232 0.295259 0.955399 0.00597374 
-20.5621 -10.241 -1.0696 0.311086 0.950357 -0.00682429 
-16.4938 -11.04 -0.824222 0.67714 0.602757 -0.422096 
-20.0768 -10.4006 -0.983913 0.136214 0.988972 0.0581443 
-15.6584 -11.4958 -0.766854 0.287894 0.956626 0.0445302 
-16.5421 -10.8946 -0.747741 0.692381 0.519125 -0.501116 
-16.1534 -11.1311 -0.739819 0.313642 0.949445 -0.0135141 
-16.074 -11.1539 -0.733979 0.294734 0.955351 -0.0209091 
-17.1739 -10.8228 -0.748271 0.302157 0.953244 0.00511257 
-19.4214 -10.6127 -0.780307 0.277733 0.960407 0.0219865 
-20.4299 -10.2824 -0.639684 0.297353 0.954453 0.024491 
-19.4651 -10.594 -0.587182 0.330668 0.943427 -0.0245786 
-16.4907 -10.7767 -0.450038 0.173685 0.794674 -0.581658 
-15.7649 -11.4544 -0.431571 0.274191 0.960961 0.0370631 
-15.7826 -11.4511 -0.42372 0.246428 0.969088 0.0119338 
-16.5262 -10.7538 -0.408179 0.233138 0.570256 -0.787689 
-15.8108 -11.4441 -0.413739 0.366048 0.929756 -0.0395318 
-16.0862 -11.1569 -0.32708 0.320246 0.947094 -0.0213326 
-16.0772 -11.1633 -0.308179 0.307034 0.951666 -0.0078312 
-19.7122 -10.5242 -0.311556 0.279809 0.959949 0.014318 
-16.3104 -10.9545 -0.23566 0.707415 0.680671 -0.190394 
-16.148 -11.1355 -0.220682 0.750955 0.656017 0.0755472 
-16.2917 -10.9521 -0.207506 0.684484 0.712306 -0.155249 
-17.0414 -10.8712 -0.219057 0.258916 0.965001 0.0416621 
-20.3596 -10.3257 -0.260298 0.278474 0.954463 -0.107018 
-19.8754 -10.4662 -0.255901 0.313742 0.946772 -0.0720365 
-18.2639 -10.6814 -0.112617 0.181695 0.978388 0.0987075 
-18.6092 -10.3754 -0.061294 0.321139 0.944915 -0.0632852 
-20.6683 -10.2104 -0.0556788 0.321379 0.946568 -0.0269329 
-19.6943 -10.5208 0.0578767 0.29791 0.953481 0.04609 
-19.3591 -10.6216 0.0941815 0.317688 0.931364 0.177864 
-19.8113 -10.5021 0.150354 0.285263 0.958112 0.0254119 
-18.1663 -10.2055 0.333297 0.310645 0.945067 -0.101727 
-17.8236 -10.3097 0.36418 0.303877 0.952268 -0.0290463 
-17.1856 -10.5071 0.354227 0.334555 0.942139 0.021144 
-18.3466 -10.1332 0.381662 0.32417 0.944871 0.0461729 
-16.5464 -10.7076 0.370094 0.304358 0.950896 0.0562423 
-20.7397 -10.1818 0.456125 0.972907 0.220176 0.0705332 
-15.9251 -10.902 0.37096 0.310055 0.950546 0.0180997 
-19.786 -10.5012 0.470473 0.362788 0.931836 -0.00819482 
-17.3002 -10.4771 0.433566 0.311152 0.950342 0.00581481 
-18.6639 -10.0344 0.465762 0.31007 0.950633 0.0123914 
-18.5536 -10.0769 0.50064 0.323374 0.946054 0.0202756 
-16.0687 -10.8573 0.482406 0.3158 0.948647 0.0183993 
-16.6912 -10.6655 0.504554 0.320776 0.947128 0.00710052 
-16.7065 -10.6656 0.51623 0.36922 0.928726 0.0338131 
-16.064 -10.861 0.50301 0.313818 0.949418 0.0111564 
-16.2543 -10.8011 0.51854 0.293998 0.955615 -0.0191044 
-16.1415 -10.829 0.516431 0.320464 0.947212 0.00956046 
-16.9196 -10.5903 0.571442 0.285037 0.958447 0.0115197 
-19.8347 -10.4729 0.672508 0.313457 0.949532 0.0115743 
-19.9133 -10.4349 0.801478 0.318278 0.947757 0.0213648 
-20.547 -10.2342 0.905868 0.271235 0.962481 0.00782237 
-20.5563 -10.2388 0.922917 0.118801 0.920209 -0.372964 
-20.2513 -10.316 1.19106 0.349772 0.93675 0.0126215 
-20.7061 -10.1789 1.21702 0.788038 0.614566 0.036112 
-20.1565 -10.374 1.22425 0.310345 0.950227 0.0274632 
-16.354 -8.94094 0.935558 0.28567 0.957994 -0.0253006 
-16.3756 -8.93898 1.06077 0.35628 0.934377 0.00223481 
-16.3987 -8.92517 1.06552 0.267998 0.963418 0.00150111 
-16.4553 -8.91137 1.07457 0.268344 0.963279 0.00919658 
-16.7724 -8.80882 1.13862 0.301426 0.953318 0.0180969 
-16.6816 -8.83702 1.15247 0.29701 0.954865 -0.00424485 
-16.3855 -8.93174 1.14376 0.323419 0.946244 -0.004826 
-16.034 -9.04169 1.1421 0.311521 0.950165 -0.0118695 
-16.0601 -9.0291 1.14599 0.308671 0.951162 -0.00356792 
-15.9359 -9.07222 1.14014 0.305882 0.952053 0.00554322 
-16.7787 -8.80954 1.24383 0.313819 0.948549 0.0421048 
-16.4487 -8.91246 1.24356 0.265506 0.963807 0.0241471 
-16.4792 -8.90197 1.27505 0.306695 0.951372 0.0288164 
-16.4615 -8.9098 1.27418 0.292328 0.956287 0.00768077 
-16.3856 -8.93393 1.27678 0.292666 0.955981 0.0211331 
-16.3602 -8.93799 1.27545 0.278105 0.960504 0.00948614 
-16.0442 -9.03543 1.26022 0.312383 0.949953 -0.00247369 
-16.4021 -8.93009 1.29283 0.273256 0.958648 0.0795264 
-19.2869 -9.22767 1.655 0.427807 -0.0583768 -0.901983 
-16.4415 -8.7998 1.66257 0.330568 0.881435 -0.337338 
-14.6503 -12.1137 -3.28507 0.328935 0.943759 0.0334633 
-15.7731 -11.7636 -3.42921 0.666976 0.721923 -0.184309 
-14.6885 -12.0924 -3.12139 0.247163 0.968463 -0.0314686 
-16.2872 -10.8605 -2.99119 0.101264 0.932063 0.347857 
-15.1556 -11.9492 -3.06001 0.317068 0.947994 0.0278608 
-16.967 -10.6081 -2.99799 0.409491 0.497949 0.764437 
-15.3267 -11.8936 -2.91772 0.471157 0.856658 0.210112 
-15.2205 -11.9455 -2.88864 0.33287 0.939302 0.0831258 
-19.0395 -10.7537 -3.216 0.33573 0.933997 0.122208 
-16.4574 -10.8912 -2.5647 0.34991 0.904868 0.242441 
-18.5355 -10.922 -2.89885 0.253756 0.9669 -0.0266899 
-20.3297 -10.3261 -2.89944 0.45263 0.889611 0.0609824 
-15.9457 -10.9651 -2.19313 0.215528 0.907206 0.361282 
-17.0803 -10.621 -2.21354 0.239877 0.933186 0.267624 
-19.0519 -10.7422 -2.50201 0.311135 0.950062 -0.0240119 
-15.0663 -11.9713 -2.10701 0.437999 0.895309 0.0811052 
-19.6005 -10.5741 -2.50904 0.155572 0.985961 0.0606417 
-19.5138 -10.5949 -2.49678 0.347846 0.937552 -0.000135014 
-20.3076 -10.3485 -2.49231 0.425912 0.898451 0.106697 
-20.6403 -10.227 -2.49874 0.266612 0.963645 -0.0175263 
-16.8173 -10.9164 -1.98849 0.306235 0.951881 0.0119271 
-16.4124 -11.048 -1.94908 0.307881 0.947729 0.0837772 
-16.4313 -11.0448 -1.93488 0.312108 0.947004 0.0759784 
-16.7839 -10.9349 -1.95248 0.230306 0.971269 0.0599679 
-20.1424 -10.3728 -2.26847 0.254289 0.967017 0.0146476 
-19.1071 -10.7267 -2.1733 0.277693 0.960656 -0.00525222 
-15.1981 -11.9487 -1.86885 0.183868 0.980713 -0.0662854 
-18.6304 -10.8713 -2.10973 0.301936 0.953159 -0.0179708 
-16.532 -11.0108 -1.8444 0.306925 0.950348 0.0513469 
-20.2418 -10.3484 -2.16408 0.280487 0.959528 -0.025158 
-18.5245 -10.9097 -1.91301 0.322905 0.941907 0.0924313 
-18.4348 -10.942 -1.84103 0.253051 0.96497 -0.0692658 
-19.9987 -10.4186 -1.89602 0.348524 0.937293 0.00348643 
-20.6048 -10.2519 -1.85497 0.725463 0.68755 0.0312609 
-18.8292 -10.8034 -1.60992 0.303589 0.952663 -0.0163354 
-18.6166 -10.868 -1.58334 0.308623 0.94898 0.0647167 
-18.0632 -10.7025 -1.2358 0.71393 0.599248 0.362223 
-18.8576 -10.8058 -1.3046 0.319382 0.943355 -0.0898719 
-18.9729 -10.7453 -1.29311 0.275119 0.961326 -0.0127253 
-19.4229 -10.6214 -1.29037 0.331582 0.94089 -0.0691314 
-20.5655 -10.2435 -1.28931 0.588381 0.803029 0.0946139 
-17.7323 -10.8571 -0.96366 0.411825 0.890118 0.195167 
-19.9701 -10.4551 -1.01078 0.33363 0.936256 0.110074 
-16.0233 -11.1703 -0.733568 0.327661 0.944456 -0.0253368 
-19.6888 -10.5524 -0.886024 0.435661 0.892712 0.115174 
-17.2956 -10.7837 -0.744063 0.287117 0.957892 -0.00261232 
-18.0426 -10.7571 -0.775696 0.485936 0.864008 0.131746 
-17.1664 -10.8199 -0.719974 0.308356 0.950944 -0.0249368 
-17.8733 -10.7897 -0.615711 0.110932 0.94219 -0.316183 
-16.5106 -10.7606 -0.392202 0.362073 0.498409 -0.787713 
-16.4332 -10.7753 -0.259353 0.678195 0.718853 -0.152647 
-17.7346 -10.8575 -0.206515 0.308358 0.951248 -0.00645887 
-16.6681 -10.8045 -0.185468 -0.0397494 0.818429 0.573231 
-16.2587 -10.9918 -0.15706 0.766335 0.631591 0.117577 
-19.4351 -10.6192 -0.0948845 0.251255 0.958755 0.132892 
-18.4689 -10.4117 -0.0748088 0.241577 0.962154 -0.126096 
-16.2941 -11.0548 -0.0528339 0.147078 0.971206 0.187424 
-19.7842 -10.4951 -0.0254496 0.325736 0.945329 -0.0157595 
-19.8514 -10.4685 -0.0100754 0.295869 0.955179 0.00971331 
-19.4187 -10.6083 0.122618 0.336409 0.940547 0.0469048 
-19.9697 -10.4288 0.209662 0.340581 0.93913 -0.0451667 
-20.2842 -10.3149 0.285546 0.284801 0.958149 -0.028984 
-18.6872 -10.0332 0.324222 0.388975 0.915223 -0.105191 
-18.3506 -10.1443 0.416667 0.287659 0.956169 0.0547103 
-17.7816 -10.3235 0.407635 0.331238 0.943186 0.026114 
-19.8597 -10.4638 0.461476 0.286416 0.958099 0.00343311 
-17.1611 -10.5228 0.404767 0.316014 0.942945 0.10483 
-20.3024 -10.3322 0.479829 0.256267 0.965909 0.0366974 
-18.6779 -10.0342 0.488416 0.347613 0.936827 -0.0389866 
-16.5093 -10.7314 0.497783 0.300982 0.951574 0.0625822 
-18.1545 -10.1957 0.570971 0.367592 0.928637 -0.0500998 
-19.8764 -10.4493 0.667897 0.30324 0.952674 0.0214053 
-16.9424 -10.4679 0.654757 0.314465 0.945768 -0.0814542 
-20.5284 -10.2375 0.883445 0.265774 0.951255 0.156456 
-20.0299 -10.3962 0.917919 0.326739 0.945057 0.0104288 
-20.6644 -10.208 0.953608 0.353437 0.874877 -0.331168 
-20.6206 -10.2163 0.954696 0.324855 0.94494 0.0394786 
-20.1018 -10.3868 0.946207 0.283817 0.958269 0.0341757 
-19.9213 -10.447 1.23539 0.297268 0.954435 0.0261733 
-19.8362 -10.4659 1.2478 0.298404 0.953409 -0.0443434 
-15.7163 -9.14294 0.950968 0.257276 0.965963 0.0269044 
-16.1609 -8.99905 1.15804 0.32241 0.94659 0.00445304 
-15.2468 -11.917 -3.24592 0.30129 0.953491 -0.00892324 
-16.5716 -10.7664 -2.9946 0.281272 0.934698 0.217317 
-16.7951 -10.6985 -3.00968 0.405743 0.719999 0.563005 
-16.8367 -10.6921 -3.00252 0.405256 0.577162 0.708979 
-15.9963 -10.8293 -2.7868 0.244803 0.955174 -0.166476 
-15.0495 -11.9884 -2.87757 0.272872 0.96192 0.0158654 
-18.5207 -10.8913 -3.25515 0.321999 0.945769 -0.0428716 
-20.1706 -10.4169 -3.21517 0.391417 0.919699 0.0307589 
-20.671 -10.221 -3.20611 0.325586 0.94538 -0.0158246 
-18.3944 -10.9489 -2.93541 0.337275 0.941171 -0.0210317 
-18.3684 -10.9639 -2.9067 0.226449 0.960676 0.160693 
-18.7692 -10.8382 -2.88948 0.325345 0.939286 0.109053 
-16.0001 -10.9587 -2.17884 0.240265 0.916158 0.320822 
-20.2508 -10.3655 -2.66044 0.360606 0.932713 0.0030987 
-18.7121 -10.8537 -2.51793 0.310561 0.950473 -0.0123692 
-20.1937 -10.3798 -2.53242 0.348343 0.935991 0.0507667 
-20.6153 -10.2409 -2.52806 0.306996 0.951688 -0.0065306 
-16.6713 -10.9643 -1.84732 0.270411 0.961408 0.050728 
-19.6681 -10.5363 -1.64476 0.269385 0.961463 0.0549581 
-19.0668 -10.722 -1.60892 0.275985 0.961112 -0.00978957 
-18.795 -10.8288 -1.5928 0.319633 0.945395 0.0637501 
-18.8501 -10.7893 -1.33874 0.301416 0.953096 0.0274934 
-18.8982 -10.7918 -1.31417 0.322903 0.942254 -0.0888307 
-19.9407 -10.4531 -1.27146 0.305928 0.951542 0.031226 
-16.1072 -11.1181 -1.03863 0.240453 0.942955 0.230256 
-17.0917 -10.8148 -1.03395 0.309461 0.900634 0.30511 
-20.6692 -10.212 -1.11123 0.316338 0.948553 0.0132944 
-20.5157 -10.2785 -1.01565 0.262326 0.964641 0.0255313 
-16.0004 -11.1803 -0.573474 0.283552 0.958872 0.012736 
-16.2536 -10.9612 -0.209824 0.768225 0.587622 -0.25403 
-17.1438 -10.8306 -0.211024 0.29085 0.956765 0.00270238 
-15.9994 -11.1851 -0.054369 0.298977 0.954231 -0.00746977 
-16.0338 -11.1859 -0.0351063 0.302936 0.949283 0.0842121 
-20.0609 -10.4015 0.00633838 0.327554 0.943357 -0.0527839 
-20.4409 -10.2861 0.0903969 0.372089 0.927929 0.0222947 
-19.4172 -10.6142 0.108434 0.29487 0.95108 0.0921831 
-17.0622 -10.6729 0.260816 -0.156289 0.774671 -0.612747 
-16.5849 -10.7006 0.36251 0.303733 0.951841 0.0417749 
-18.171 -10.192 0.393173 0.286904 0.957923 0.00834624 
-18.6799 -10.0351 0.489624 0.320316 0.947117 0.0191766 
-17.436 -10.4248 0.475283 0.286574 0.957875 -0.0187387 
-18.3735 -10.131 0.633375 0.326759 0.938628 -0.110484 
-20.0597 -10.4061 0.922929 0.29194 0.955024 0.0519702 
-20.3642 -10.3054 0.959143 0.312869 0.949719 0.0121489 
-16.5868 -8.87515 0.935847 0.231623 0.9728 -0.00324224 
-16.4203 -8.91867 1.2765 0.282064 0.959305 -0.0131576 
-16.8559 -8.72251 1.37198 -0.0368225 0.896814 -0.440873 
-16.5057 -10.7995 -2.97187 0.288995 0.932716 0.215693 
-15.1861 -11.9539 -2.91237 0.308128 0.95019 0.046858 
-18.5129 -10.9131 -3.23589 0.253833 0.967098 0.0170254 
-18.3117 -10.9986 -2.89993 0.540656 0.835757 0.095921 
-14.9584 -12.0043 -2.51786 0.285002 0.958052 0.0301541 
-15.928 -10.9734 -2.26046 0.328194 0.935497 0.130895 
-15.8482 -10.9959 -2.24658 0.39382 0.878568 0.27023 
-15.9822 -11.0043 -2.1095 0.328236 0.90531 0.269583 
-16.0394 -10.9702 -2.09919 0.259602 0.947708 0.185623 
-20.3195 -10.3527 -2.41003 0.437435 0.899158 -0.0128737 
-17.8029 -10.5652 -2.08938 0.591741 0.804147 0.0564858 
-19.3659 -10.6393 -2.20403 0.307687 0.951429 0.0105863 
-19.3851 -10.6307 -1.30963 0.26068 0.965142 0.0233951 
-16.7452 -10.9693 -1.1251 0.12292 0.946859 -0.297235 
-15.9566 -11.1867 -0.986781 0.342407 0.928974 0.140588 
-17.8525 -10.8156 -0.809072 0.306292 0.951932 -0.00337166 
-17.1755 -10.8397 -0.464989 0.316666 0.946525 0.0617474 
-16.3896 -10.8238 -0.276747 0.815069 0.467392 -0.342356 
-16.9951 -10.8838 -0.182493 0.293078 0.955563 0.0317051 
-17.6377 -10.8849 -0.09919 0.26705 0.96364 0.00904171 
-19.8019 -10.4934 -0.045883 0.290859 0.956218 -0.0323627 
-20.6379 -10.2137 0.147863 0.355341 0.934067 -0.03538 
-20.1928 -10.3569 0.168965 0.268134 0.960799 -0.0704967 
-16.1245 -10.8437 0.335168 0.282777 0.959065 -0.0152294 
-16.3389 -10.7716 0.37891 0.296618 0.954701 0.0237335 
-19.8116 -10.4911 0.466776 0.344295 0.938837 -0.00674859 
-16.093 -10.8549 0.518972 0.316416 0.948424 0.0193129 
-20.2829 -10.3223 0.692557 0.310745 0.950424 -0.0114945 
-17.1398 -10.4436 -2.94994 0.146663 0.97848 0.145142 
-20.0879 -10.4136 -3.24741 0.285845 0.958275 -0.00103978 
-16.0168 -10.9391 -2.2648 0.269549 0.946143 0.179325 
-17.0333 -10.635 -2.27501 0.308256 0.944268 0.115483 
-20.3924 -10.3123 -2.45518 0.33041 0.943773 -0.0110069 
-16.3392 -11.0531 -1.92822 0.223928 0.956401 0.18749 
-16.8394 -10.9071 -1.94362 0.30845 0.951141 0.0137692 
-16.8855 -10.9007 -1.93079 0.32164 0.945841 0.0439542 
-16.6004 -10.9862 -1.11591 0.447875 0.883783 -0.135413 
-15.5928 -11.5149 -0.836015 0.28652 0.958052 0.00660315 
-18.2415 -10.1816 0.384365 0.345055 0.933751 -0.0951094 
-20.3963 -10.2893 0.931215 0.325694 0.945454 0.00628638 
-20.4585 -10.2651 1.19376 0.304493 0.952228 -0.0233758 
-16.1956 -10.9389 -2.25964 -0.348348 0.935546 0.0583663 
-16.5578 -11.0128 -1.89757 0.300634 0.948625 0.0986411 
-15.3509 -11.4454 -1.49449 -0.0423427 0.952666 0.301056 
-17.8353 -10.644 -1.51929 0.466755 0.866636 0.176301 
-15.5343 -11.5126 -1.35135 0.178405 0.977536 0.112229 
-16.7039 -11.0033 -1.25425 -0.109743 0.990938 0.0774449 
-17.4465 -10.55 0.289249 0.0958354 0.644898 -0.758236 
-18.2195 -10.1703 0.316482 0.327532 0.942766 0.0625727 
-16.4787 -10.7225 0.316826 0.289662 0.951194 0.106425 
-18.3322 -10.1489 0.406866 0.309683 0.950649 0.0190519 
-18.5638 -10.0727 0.444656 0.327333 0.944829 -0.0122696 
-15.9151 -11.0467 -2.53289 0.228943 0.973394 -0.00946887 
-18.8306 -10.8302 -2.90468 0.401167 0.903654 0.149916 
-15.0866 -11.437 -2.28966 0.533921 0.841253 0.0849759 
-16.9054 -10.7079 -2.18946 0.377365 0.881896 0.282587 
-16.6024 -10.8965 -0.821115 0.755225 0.533681 -0.380552 
-19.5072 -10.5788 -0.605979 0.323289 0.943965 -0.0664459 
-19.4943 -10.5844 -0.315698 0.285382 0.958353 0.0108292 
-18.0725 -10.2276 0.444532 0.33294 0.942519 -0.0284556 
-16.4224 -8.91663 1.14947 0.231672 0.972792 0.00211871 
-16.5794 -11.0075 -1.3221 0.343154 0.937942 0.0500927 
-16.3294 -10.9754 -0.145727 0.663872 0.632931 0.398337 
-17.3675 -10.6783 -2.17634 -0.43674 0.77519 0.456441 
-17.6652 -10.7978 -1.33336 0.226335 0.955881 -0.187254 
-15.6187 -11.4882 -0.516159 0.0303832 0.993302 -0.111478 
-18.6799 -10.3813 -0.683381 0.325796 0.507973 0.797384 
-16.2912 -10.9515 -0.0934602 0.723304 0.625178 0.29323 
-17.1035 -10.663 -2.14407 0.310517 0.886859 0.342141 
-16.2311 -11.0574 -1.60243 -0.103972 0.956585 0.272278 
-16.6256 -11.0286 -1.61345 0.322167 0.856514 0.403227 
-15.6155 -11.4944 -1.2426 -0.0114815 0.995915 -0.0895575 
-16.0783 -11.15 -1.24458 0.357725 0.930233 -0.0818466 
-17.0259 -11.0297 -0.854063 -0.507801 0.847956 0.152015 
-16.2549 -10.892 -2.1898 0.255607 0.948356 0.187849 
-16.6602 -10.7171 -0.356223 0.12576 0.844975 -0.519809 
-15.4521 -11.634 -1.6523 0.358027 0.927817 -0.104748 
-20.4729 -10.2929 -2.7749 0.269183 0.962882 -0.0199871 
-20.1738 -10.3854 -2.66085 0.286022 0.958032 0.0191497 
-20.354 -10.3443 -2.17784 0.375345 0.918375 0.125313 
-19.3585 -10.6474 -3.11849 0.30696 0.951423 -0.0238851 
-19.5608 -10.588 -2.84708 0.290868 0.956408 -0.0260575 
-19.3285 -10.6253 -2.87983 0.361883 0.922789 -0.13229 
-18.9833 -10.7687 -3.23695 0.316177 0.946723 0.0612208 
-19.2258 -10.7012 -2.88803 0.391283 0.91855 0.0562488 
-20.0725 -10.3903 -1.77064 0.353307 0.935464 0.00896001 
-18.9452 -10.7798 -2.82299 0.315057 0.948171 -0.0413717 
-20.4151 -10.2833 -1.11962 0.245411 0.969316 0.0141253 
-18.7873 -10.8273 -2.8756 0.296349 0.954878 0.0196359 
-18.4707 -10.9176 -3.19471 0.125591 0.991972 -0.0147868 
-18.5741 -10.9103 -2.85048 0.238768 0.969707 0.0515558 
-20.0946 -10.4088 -0.983231 0.313614 0.946975 0.0698942 
-18.5624 -10.903 -2.53933 0.297955 0.954319 -0.0223065 
-19.1393 -10.7143 -1.89772 0.32092 0.946295 0.0391873 
-18.5403 -10.9095 -2.55314 0.277043 0.960131 -0.0373642 
-18.5429 -10.907 -2.53444 0.282509 0.958196 -0.0452613 
-20.2765 -10.3497 -0.642043 0.392106 0.919876 0.00901553 
-18.9572 -10.7657 -2.01117 0.302342 0.952952 -0.0217294 
-18.464 -10.9281 -2.53948 0.251178 0.967939 -0.00170243 
-17.217 -10.4573 -2.77771 0.172917 0.724215 0.667542 
-18.9393 -10.7782 -1.90435 0.277951 0.956495 0.0886649 
-20.6006 -10.2285 -0.026968 0.481695 0.874624 0.0547978 
-20.2911 -10.3302 -0.0144752 0.292927 0.954801 -0.0504916 
-16.726 -10.7244 -2.98934 0.110423 0.518161 0.848125 
-19.8282 -10.4906 -0.363328 0.306829 0.950639 0.0462753 
-20.2336 -10.3283 0.242258 0.293249 0.953121 -0.074603 
-20.0232 -10.4076 0.225882 0.363347 0.931252 -0.027369 
-19.5032 -10.5772 -0.249071 0.223919 0.97439 0.0206188 
-19.9862 -10.4422 0.27776 0.580489 0.814199 -0.0106411 
-17.7159 -10.8117 -1.82747 0.692507 0.683516 0.230736 
-19.4484 -10.6001 -0.186153 0.275648 0.960316 0.042553 
-17.7447 -10.7961 -1.6321 0.832758 0.552745 0.0314052 
-20.5892 -10.2325 1.20289 0.36789 0.929114 -0.0374825 
-17.9844 -10.729 -1.31614 0.63478 0.60715 0.477937 
-17.9685 -10.7312 -1.32714 0.596348 0.632052 0.494852 
-15.8548 -10.8417 -2.92877 0.324861 0.930155 0.171107 
-17.7761 -10.7878 -1.3775 0.514728 0.78505 0.344604 
-18.3662 -10.6083 -0.472529 0.568347 0.721674 0.395181 
-19.9954 -10.4087 1.05819 0.308196 0.951302 0.00632345 
-18.1938 -10.6729 -0.636723 0.647702 0.711699 0.271968 
-18.5762 -10.0625 0.32929 0.228788 0.967723 -0.105679 
-18.5532 -10.0741 0.497928 0.333729 0.94265 -0.00606202 
-15.8124 -11.7648 -3.45862 0.824443 0.434061 -0.363161 
-18.3203 -10.1456 0.375608 0.297698 0.953673 0.0433949 
-16.0637 -10.9364 -2.22828 0.236696 0.937309 0.255788 
-17.7961 -10.7171 -0.461519 -0.0838907 0.99601 -0.0304326 
-18.1801 -10.1906 0.497522 0.295039 0.95548 0.00318123 
-18.1839 -10.1923 0.517811 0.295377 0.955323 0.0105184 
-16.6821 -10.9553 -1.28311 0.199153 0.938534 0.281944 
-16.5797 -10.9601 -1.33452 0.259874 0.867696 0.423755 
-15.3177 -11.9089 -3.3235 0.327107 0.943977 0.0436788 
-17.93 -10.2762 0.504177 0.314516 0.949242 -0.00430895 
-16.8266 -10.9217 -1.04805 0.0710342 0.989902 -0.122675 
-17.5618 -10.9032 -0.400933 0.376206 0.923099 0.0797393 
-17.7018 -10.3477 0.374973 0.295994 0.955188 -0.0018334 
-16.6157 -10.9316 -1.02815 0.814011 0.576771 -0.0687142 
-16.7794 -8.80787 1.2429 0.314638 0.94805 0.0469499 
-16.597 -11.0371 -1.01089 0.872112 0.483125 -0.0775286 
-16.4433 -8.91283 0.971019 0.299093 0.954052 -0.0181134 
-17.3321 -10.4554 0.32932 0.189298 0.784038 -0.591143 
-16.558 -10.8891 -0.698033 0.668869 0.632306 -0.390901 
-16.5372 -10.9002 -0.704054 0.720363 0.57637 -0.385843 
-15.0332 -11.9884 -3.00338 0.275751 0.961069 0.017562 
-17.028 -10.8703 -0.188178 0.267617 0.963433 -0.0133739 
-14.9981 -12.0011 -2.99713 0.296375 0.954142 0.0421276 
-15.1981 -11.9444 -2.75396 0.300196 0.95377 -0.0143142 
-17.3154 -10.4716 0.501607 0.327485 0.944764 0.0131825 
-17.0991 -10.539 0.385603 0.313538 0.949196 -0.0268512 
-17.0848 -10.5425 0.374467 0.300891 0.951107 -0.0697127 
-14.786 -12.0774 -2.99363 0.338883 0.940191 0.0346419 
-15.7101 -11.4343 -1.48352 0.396183 0.917595 0.0325218 
-14.7753 -12.095 -2.9081 0.406832 0.912319 0.0465008 
-14.5712 -12.1275 -3.12515 0.305257 0.948806 -0.0811461 
-16.4378 -10.8011 -0.2619 0.732007 0.660946 -0.165276 
-14.7616 -12.0996 -2.8999 0.3025 0.952397 -0.0378516 
-15.5531 -11.4801 -1.56405 -0.185971 0.981635 0.0425127 
-16.955 -10.5793 0.504421 0.285086 0.958194 -0.0242886 
-14.9827 -12.0001 -2.5033 0.367881 0.9259 -0.085863 
-14.9658 -12.0027 -2.48231 0.266999 0.963697 0.000450832 
-16.4551 -8.79333 1.67113 0.335586 0.876156 -0.346023 
-15.5528 -11.4868 -1.3928 -0.0315478 0.985392 0.167353 
-15.9191 -11.2089 -0.72116 0.302188 0.953204 0.00915256 
-15.5148 -11.5306 -0.89943 0.282575 0.959186 -0.0106696 
-15.92 -11.2127 -0.201865 0.299758 0.954015 0.000625421 
-15.5754 -11.4354 -0.525106 -0.186688 0.981904 0.0318237 
-16.0772 -10.8581 0.513991 0.322398 0.94654 0.0110211 
-20.4265 -10.2936 -2.77396 0.301268 0.95351 -0.00744439 
-20.765 -10.1816 -2.28717 0.468305 0.867337 0.16857 
-20.158 -10.4029 -2.88141 0.317669 0.948111 0.013126 
-19.7599 -10.5073 -3.11984 0.302282 0.952846 -0.0266391 
-20.389 -10.3076 -2.25072 0.282506 0.958752 -0.0313877 
-20.3806 -10.3078 -1.89562 0.160672 0.985017 0.062662 
-19.4378 -10.6236 -2.86029 0.316565 0.948535 -0.00823502 
-19.6169 -10.5854 -2.57729 0.110017 0.980335 0.163828 
-20.3922 -10.2968 -1.5879 -0.143279 0.0978513 0.984833 
-19.5153 -10.5867 -2.49445 0.328387 0.942437 -0.0630461 
-20.5881 -10.2314 -1.09593 0.340151 0.940144 0.0206674 
-20.5365 -10.2672 -1.07757 0.517533 0.854206 0.0499155 
-19.7958 -10.4971 -1.78576 0.273321 0.961382 -0.032266 
-19.2047 -10.6859 -2.37452 0.323935 0.945743 -0.0252303 
-18.3815 -10.9195 -3.22982 0.133505 0.981247 -0.139033 
-18.5468 -10.8997 -3.03407 0.314677 0.947356 0.0591206 
-18.5393 -10.9223 -2.90085 0.33279 0.943 -0.0011208 
-18.551 -10.9064 -2.83204 0.274615 0.961302 0.0219983 
-18.3795 -10.9424 -2.97398 0.369282 0.928648 -0.0352738 
-19.1231 -10.7243 -2.14678 0.31683 0.945328 -0.0772915 
-19.11 -10.7233 -2.02556 0.284075 0.957922 -0.041083 
-18.2064 -11.0115 -2.9174 -0.528635 0.388951 0.754495 
-18.1907 -11.0197 -2.9064 0.176544 0.983766 -0.0321921 
-19.3364 -10.6518 -1.62151 0.305752 0.950383 0.05734 
-16.7612 -10.7083 -3.01365 0.317774 0.747783 0.582959 
-20.5627 -10.2353 0.464145 0.267435 0.963001 0.0332722 
-20.1479 -10.3733 0.00765074 0.279585 0.959894 -0.0208668 
-19.4256 -10.6166 -0.776494 0.240648 0.970254 0.0263855 
-20.2555 -10.3288 0.254768 0.276521 0.960358 -0.0353256 
-20.0049 -10.4207 0.0203329 0.322579 0.944773 -0.0578491 
-20.0357 -10.397 0.158003 0.317429 0.946724 -0.0543379 
-20.6729 -10.2052 0.871456 0.222113 0.973026 0.0623382 
-20.6541 -10.2161 0.85279 0.34952 0.904331 0.244994 
-20.0568 -10.3896 0.225782 0.328928 0.943322 -0.0441484 
-17.1758 -10.6265 -2.18689 0.20807 0.948629 0.238348 
-17.1017 -10.6084 -2.21842 0.20137 0.902905 0.379753 
-16.3101 -10.8483 -3.00651 0.0195653 0.944604 0.327628 
-16.3144 -10.847 -2.98679 0.062475 0.996859 0.048672 
-20.6229 -10.2141 0.952337 0.907907 0.357941 -0.218134 
-20.506 -10.2533 0.912013 0.367899 0.929299 -0.0324482 
-19.9615 -10.441 0.301689 0.461157 0.887298 -0.00601929 
-20.4765 -10.2537 0.922363 0.218972 0.975421 0.0245997 
-19.7777 -10.4961 0.466531 0.346495 0.937126 -0.0416583 
-20.0358 -10.3967 0.917244 0.307705 0.951339 0.0165152 
-19.7841 -10.4745 0.663288 0.32279 0.946442 -0.00740071 
-19.9915 -10.4143 0.915725 0.337572 0.941217 -0.0125008 
-19.6651 -10.542 0.66059 0.342827 0.933383 0.106141 
-19.9022 -10.4561 0.935281 0.366262 0.930212 -0.0236283 
-17.703 -10.8586 -0.79587 0.258639 0.965239 0.0376747 
-18.2489 -10.6878 -0.0940489 0.265969 0.963976 0.00321099 
-15.9572 -10.9534 -2.22755 0.212172 0.901487 0.377232 
-18.1181 -10.7399 -0.0839017 0.360197 0.930763 0.0627536 
-17.0173 -10.865 -0.996918 0.416446 0.879501 0.230326 
-17.2301 -10.8026 -0.743794 0.29628 0.955073 -0.00735765 
-17.8182 -10.3122 0.364831 0.304819 0.947358 -0.0979719 
-17.0628 -10.8539 -0.745569 0.290694 0.956801 0.00542893 
-16.8574 -10.9007 -0.959231 0.105779 0.984314 -0.141195 
-16.8036 -8.79863 1.15637 0.292845 0.956157 0.00247637 
-16.6151 -10.9551 -1.03826 0.692917 0.709783 -0.126783 
-17.1127 -10.846 -0.446938 0.30141 0.953377 0.0149706 
-16.8038 -8.80155 1.27228 0.304982 0.951616 0.0375936 
-16.6703 -8.83597 1.13948 0.274963 0.961146 -0.0243616 
-16.4757 -8.90779 0.93905 0.307755 0.950648 -0.0394422 
-15.1561 -11.9456 -3.06009 0.347832 0.936703 0.0399949 
-15.1571 -11.9521 -3.04443 0.322659 0.945729 0.0385688 
-15.2134 -11.938 -2.87014 0.33249 0.942246 0.0402773 
-15.2019 -11.941 -2.76976 0.294617 0.955289 -0.0249797 
-16.397 -8.925 1.06465 0.279681 0.960083 -0.00445359 
-16.6237 -11.0198 -0.612116 -0.0480262 0.916587 0.396939 
-14.973 -12.0137 -2.91118 0.312231 0.949641 0.0263616 
-16.4477 -8.91233 1.24208 0.258461 0.96577 0.0220384 
-16.5873 -11.0855 -0.565575 0.786041 0.510542 -0.348549 
-16.5451 -11.1193 -0.621166 0.817173 0.361537 0.44891 
-15.5673 -11.4764 -1.82041 0.0107298 0.995449 0.0946945 
-16.665 -10.8036 -0.201014 0.113573 0.750762 0.650736 
-16.6204 -10.8142 -0.214572 0.113021 0.845639 0.521652 
-15.0302 -11.9948 -2.55557 0.294702 0.955529 -0.0107405 
-16.0792 -11.1609 -0.822645 0.29616 0.955126 0.00489106 
-16.9462 -10.5875 0.517907 0.275198 0.961371 -0.00567368 
-16.0548 -11.1484 -0.761558 0.330231 0.943849 -0.00985435 
-14.9395 -12.0216 -2.53573 0.294497 0.955642 0.00448258 
-16.0657 -9.02979 1.08593 0.312666 0.94985 -0.00498209 
-16.027 -11.1678 -0.757316 0.282622 0.959206 -0.00692424 
-16.8329 -10.6105 0.491407 0.274137 0.961106 -0.0335272 
-16.1954 -11.1208 -0.477877 0.0936179 0.991883 0.0860425 
-16.0392 -9.03914 1.16189 0.308566 0.951074 -0.0156776 
-15.3153 -11.9055 -1.88242 0.101701 0.994792 -0.00675028 
-15.908 -11.2102 -0.710023 0.29239 0.95629 -0.00421658 
-15.9496 -9.06668 1.14072 0.31021 0.950667 -0.00131983 
-16.5534 -10.7106 0.367288 0.294109 0.950482 0.100418 
-15.8492 -9.09756 1.14522 0.304906 0.951518 -0.0405572 
-15.4863 -11.4569 -1.11931 0.444003 0.302815 0.843305 
-14.9739 -12.0067 -2.04969 0.316002 0.948743 0.00542248 
-16.0785 -11.1662 -0.307361 0.294907 0.955509 -0.00577021 
-15.1253 -11.97 -1.85998 0.284251 0.956712 0.0624818 
-15.8403 -9.1026 1.15507 0.304175 0.952616 0.000998914 
-15.0718 -11.976 -1.88491 0.312677 0.949467 0.0273159 
-16.0623 -11.1576 -0.241158 0.338551 0.940919 0.00737792 
-16.0767 -11.163 -0.178317 0.347474 0.93765 0.00868215 
-15.9095 -11.2152 -0.190583 0.318832 0.947788 0.00659165 
-15.8205 -11.4463 -0.392961 0.275738 0.958266 0.0754643 
-15.8676 -10.9236 0.405472 0.302348 0.953165 0.00789975 
-20.6055 -10.2472 -1.85022 0.976771 0.206423 -0.0575093 
-19.4457 -10.6254 -2.88564 0.2878 0.957415 0.0229832 
-19.6372 -10.5627 -2.57547 0.217496 0.976058 0.00230849 
-20.0021 -10.4243 -1.89918 0.413248 0.908447 0.0628567 
-20.4302 -10.2944 -1.28813 0.350281 0.933877 0.0719448 
-19.1056 -10.7369 -2.15272 0.315573 0.948073 -0.0396377 
-19.2498 -10.6605 -1.32858 0.23424 0.972162 -0.00566515 
-17.2232 -10.6016 -2.35948 0.029604 0.992417 -0.119299 
-18.5513 -10.1901 -0.862983 0.795633 0.590269 0.136203 
-17.3025 -10.5835 -2.21023 -0.252091 0.850546 0.461542 
-17.2385 -10.5685 -2.20285 0.1824 0.889772 0.418374 
-18.5553 -10.2304 -0.81009 0.747075 0.473946 0.466105 
-20.208 -10.3455 0.319791 0.289889 0.956592 0.0299322 
-17.1479 -10.6249 -2.17162 0.225092 0.934305 0.27642 
-20.6452 -10.1938 0.961135 0.811135 0.483674 -0.328816 
-20.5056 -10.2612 0.850813 0.242795 0.970071 0.00360783 
-19.6705 -10.54 -0.066607 0.333934 0.942557 0.00855708 
-19.2972 -10.646 -0.395521 0.276574 0.960953 -0.00874311 
-17.8287 -10.6484 -1.50944 0.701893 0.702114 0.119922 
-19.423 -10.6036 -0.253254 0.287559 0.957659 -0.0141057 
-19.2825 -10.6529 -0.291446 0.297598 0.95459 0.0138856 
-18.0626 -10.7019 -1.23801 0.685906 0.61802 0.384167 
-20.2892 -10.3259 0.955786 0.260911 0.964971 0.0275056 
-17.7329 -10.8029 -1.4181 0.544498 0.836886 0.0560677 
-19.3386 -10.6129 0.0837395 0.315932 0.941482 0.117471 
-19.9129 -10.4559 0.916974 0.374758 0.925474 0.0552744 
-18.6628 -10.0323 0.456374 0.325483 0.945506 0.00889546 
-17.9951 -10.7757 -0.809793 0.36618 0.92603 0.0915451 
-16.9611 -10.8788 -1.69705 0.374949 0.923891 -0.076404 
-17.8922 -10.7687 -0.597263 0.108247 0.940973 -0.320706 
-15.7792 -11.7617 -3.33713 0.417121 0.90806 -0.0379167 
-15.7495 -11.7675 -3.34726 0.308297 0.951285 -0.00311914 
-16.033 -10.9621 -2.17856 0.221496 0.922926 0.314875 
-15.8075 -10.987 -2.28877 0.42754 0.813802 0.393619 
-17.8826 -10.8052 -0.205765 0.198982 0.977072 0.0757388 
-17.2203 -10.7988 -0.603578 0.301171 0.953521 0.00968876 
-17.1615 -10.8149 -0.250036 0.294671 0.955408 0.0190806 
-15.478 -11.8504 -2.68205 0.317261 0.947355 0.0431782 
-15.242 -11.9446 -2.82798 0.348769 0.932072 0.0979854 
-16.4935 -10.7815 -0.451764 0.0917512 0.653768 -0.751112 
-14.7533 -12.0797 -3.14333 0.283805 0.958755 -0.015634 
-15.9818 -11.1777 -0.994936 0.350384 0.924417 0.150611 
-16.9394 -10.4665 0.653714 0.319779 0.947487 -0.00324936 
-16.2787 -10.9557 -0.228829 0.549148 0.723688 -0.417985 
-16.5353 -10.7059 0.316923 0.300054 0.946955 0.115082 
-15.0988 -11.9694 -1.86027 0.309984 0.950585 0.0172501 
-16.1571 -8.90765 1.66054 0.21172 0.969158 -0.126126 
-15.7941 -11.4496 -0.680727 0.422611 0.906046 0.0219099 
-15.8272 -11.4446 -0.631492 0.334451 0.924756 0.18157 
-16.0374 -11.1838 -0.0380523 0.318762 0.945756 0.0627373 
-16.2568 -10.7992 0.518314 0.294893 0.955225 -0.0241621 
-16.0549 -10.9843 0.279496 0.260663 0.601102 -0.755468 
-15.6365 -11.4947 -0.448063 0.135539 0.98761 0.0790866 
-20.6875 -10.2294 -3.21041 0.313764 0.949487 0.00521221 
-20.2325 -10.3502 -2.68772 0.402613 0.91537 0.00114134 
-20.1569 -10.3806 -2.7702 0.276618 0.960823 0.0173774 
-19.9706 -10.4479 -2.60613 0.280057 0.959948 0.00817879 
-19.4799 -10.6155 -2.87191 0.293964 0.955816 2.23087e-06 
-18.9326 -10.7666 -2.87552 0.28252 0.959232 -0.00746503 
-18.3693 -10.9567 -2.90709 0.330868 0.94207 -0.0550425 
-18.3045 -10.9885 -2.90059 0.40755 0.912159 -0.0432185 
-18.2822 -11.0032 -2.926 0.373405 0.927441 0.0205517 
-18.8563 -10.8105 -2.1898 0.31247 0.949096 0.0397416 
-16.8374 -10.6953 -3.00772 0.395254 0.5282 0.751518 
-17.8812 -10.5339 -2.05185 0.428445 0.854339 0.294178 
-17.189 -10.594 -2.23689 0.0981981 0.991227 0.088471 
-17.1974 -10.6024 -2.19543 0.187024 0.941287 0.281072 
-20.1806 -10.3529 0.32706 0.293233 0.955896 -0.0166735 
-18.8147 -10.7969 -1.13467 0.109879 0.993526 -0.0288471 
-17.0824 -10.6158 -2.21246 0.310122 0.901796 0.300978 
-17.0985 -10.619 -2.18596 0.214412 0.910366 0.353922 
-17.118 -10.6269 -2.16369 0.246963 0.922587 0.296384 
-16.8932 -10.6818 -2.29782 0.45449 0.869157 0.194949 
-19.2679 -10.6543 -0.378371 0.275087 0.961338 0.0124737 
-19.2234 -10.6714 -0.268632 0.292962 0.953763 0.0671507 
-20.14 -10.3798 0.920292 0.276118 0.959735 0.0516487 
-19.7466 -10.5194 0.461124 0.262438 0.964907 0.00902974 
-19.4071 -10.6154 0.106262 0.297799 0.951403 0.0784046 
-19.8758 -10.452 0.665029 0.305876 0.951891 0.0185221 
-19.9135 -10.4392 0.794743 0.338544 0.940925 -0.00693329 
-19.9433 -10.4348 0.915506 0.348487 0.937268 0.00923012 
-18.7072 -10.2972 0.0768537 0.543193 0.790183 -0.283818 
-19.8268 -10.4599 1.24451 0.308412 0.950652 -0.0337993 
-17.8035 -10.7937 -0.605645 0.221109 0.849374 -0.479243 
-16.9099 -10.763 -1.2961 0.25141 0.443899 0.860085 
-16.7504 -10.9892 -1.64077 0.576537 0.596553 0.558327 
-16.6517 -10.9821 -1.69249 0.294634 0.952739 0.0740258 
-15.9417 -10.964 -2.24077 0.302488 0.911562 0.278489 
-16.016 -10.9697 -2.16269 0.245278 0.921701 0.300511 
-15.8804 -11.0012 -2.19452 0.31672 0.910839 0.264691 
-17.3249 -10.7748 -0.467402 0.317745 0.948153 0.00662697 
-17.1114 -10.8307 -0.0782718 0.268147 0.959664 -0.084513 
-16.4412 -8.91123 1.1311 0.262498 0.964932 0.000307693 
-16.1685 -11.1248 -0.997928 0.231454 0.971552 0.0501477 
-16.4 -10.8552 -0.309668 0.851963 0.444423 -0.276851 
-16.0989 -11.1463 -0.601423 0.29071 0.956763 0.00956871 
-16.2757 -10.9432 -0.190183 0.746673 0.473745 -0.466952 
-16.4706 -10.7268 0.352292 0.29196 0.953748 0.0715849 
-15.1671 -11.9625 -1.88774 0.256885 0.965458 0.0435901 
-15.9126 -11.2105 -0.485621 0.2881 0.957573 0.00728505 
-16.4376 -10.623 0.687953 0.271337 0.962399 0.0127882 
-15.6099 -11.4727 -0.56379 -0.154773 0.955984 -0.249279 
-15.6136 -11.4818 -0.419521 0.0608214 0.992017 0.110469 
-15.9078 -10.9128 0.407439 0.309586 0.950858 -0.00512995 
-19.4882 -10.6074 -2.59869 0.366222 0.930113 -0.0277688 
-19.9359 -10.4602 -1.86875 0.32339 0.945331 0.0420542 
-18.5059 -10.8907 -3.06183 0.297614 0.954251 0.0288222 
-18.5889 -10.9017 -2.89514 0.268579 0.961145 0.0637611 
-19.9089 -10.4567 -1.30223 0.253143 0.964804 0.0712087 
-17.1368 -10.4541 -2.95936 0.235981 0.971256 -0.0312206 
-19.4507 -10.607 -1.03738 0.332863 0.942607 -0.0263557 
-18.1074 -11.0319 -2.48658 0.248395 0.968658 0.00112835 
-20.2447 -10.3472 0.0599804 0.224527 0.972788 -0.0571887 
-19.4419 -10.6208 -0.735103 0.208055 0.974947 0.0786807 
-20.0202 -10.4285 -0.0414829 0.416255 0.902243 -0.112646 
-19.3786 -10.611 -0.685556 0.112357 0.991952 -0.0583763 
-18.8491 -10.7841 -1.24634 0.276907 0.960877 0.00614871 
-18.552 -10.885 -1.55215 0.108134 0.993068 -0.0460754 
-20.4637 -10.2689 0.909877 0.366162 0.926423 0.0875565 
-19.2902 -10.6489 -0.328019 0.314046 0.949408 0.000531713 
-17.2106 -10.789 -1.00979 0.245259 0.952786 0.179018 
-15.9242 -10.9813 -2.26406 0.3005 0.952672 0.0459936 
-16.3168 -11.0664 -1.91603 0.1791 0.977539 0.111086 
-16.3503 -11.0667 -1.88323 0.292094 0.952252 0.0888696 
-15.6847 -11.2841 -2.27943 0.153944 0.984564 0.083278 
-17.1227 -10.8347 -0.571595 0.304795 0.952399 0.00598479 
-17.0827 -10.8499 -0.447696 0.33741 0.941255 -0.0138747 
-17.1595 -10.8264 -0.318406 0.295778 0.955238 0.00598201 
-17.0872 -10.8541 -0.404721 0.329856 0.94403 0.00165416 
-17.3345 -10.4636 0.521615 0.327599 0.944494 0.0247078 
-16.6809 -10.8037 -0.225465 0.0887622 0.750365 0.655038 
-16.0359 -11.1421 -1.03295 0.261062 0.930992 0.255148 
-16.4879 -10.713 -0.228032 0.562766 0.789826 -0.243864 
-14.9584 -12.0085 -2.4529 0.305023 0.952341 -0.00279624 
-16.2066 -11.1196 -0.460313 0.103921 0.986123 0.129464 
-16.0417 -11.1658 -0.591504 0.294941 0.955469 0.00941867 
-15.962 -11.2005 -0.410041 0.270724 0.96253 0.0156269 
-16.0343 -10.8664 0.340531 0.338774 0.940144 -0.0368958 
-15.7783 -11.4437 -0.166131 0.462737 0.886073 -0.0273746 
-20.4764 -10.278 -1.81973 0.640826 0.767501 0.0168385 
-18.7938 -10.7913 -2.37369 -0.0987814 0.97886 0.179097 
-17.8522 -10.556 -2.08694 0.647868 0.592676 0.478543 
-17.1433 -10.5935 -2.27438 0.185878 0.97435 0.126856 
-17.8708 -10.6138 -1.55907 0.361822 0.911113 0.197379 
-17.8088 -10.7632 -1.41812 0.451509 0.695026 0.559534 
-18.5653 -10.0654 0.361089 0.274791 0.961337 0.0179204 
-16.5062 -11.047 -1.68049 0.270939 0.961692 0.0417203 
-15.1437 -11.9601 -3.24495 0.297817 0.954577 -0.00935326 
-16.525 -10.9592 -0.785019 0.732782 0.528069 -0.429154 
-14.9988 -11.9972 -2.86244 0.302031 0.953285 -0.00502817 
-16.5287 -11.146 -0.556683 0.760848 0.623738 0.179056 
-16.2284 -11.0182 -0.236609 0.701515 0.684868 -0.197061 
-17.3091 -10.5814 -2.28161 -0.133004 0.972233 0.192545 
-17.6917 -10.6678 -2.02784 0.493152 0.781176 0.382838 
-17.2346 -10.578 -2.24783 0.230698 0.954484 0.189049 
-17.832 -10.6407 -1.54063 0.723987 0.686033 0.0721209 
-17.8144 -10.783 -0.578629 0.190966 0.964886 -0.180351 
-16.0559 -11.1656 -0.125666 0.323602 0.945666 0.0315869 
-16.4632 -10.766 -3.01011 0.342491 0.930389 0.130679 
-17.7438 -10.7385 -1.8881 0.731361 0.623757 0.275751 
-17.8878 -10.6339 -1.47546 0.645488 0.711364 0.278039 
-18.1821 -10.72 -0.208509 0.322238 0.938255 0.125855 
-17.8398 -10.3213 0.322338 0.321936 0.888905 -0.325892 
-16.6762 -10.9959 -1.11832 0.133055 0.982483 -0.130475 
-15.7838 -11.4613 -0.650977 0.386447 0.922232 -0.0121113 
-16.5479 -11.0134 -1.77012 0.310831 0.950411 0.0101557 
-19.9374 -10.4541 -1.75497 0.359328 0.932208 -0.0432646 
-16.7005 -11.0225 -1.6121 0.385987 0.639629 0.664747 
-15.957 -10.9755 -1.9242 0.356436 0.875611 -0.325974 
-16.4174 -11.1169 -0.638135 0.295399 0.941162 0.164177 
-18.4696 -10.596 -0.475529 0.6913 0.698824 0.183711 
-17.2381 -10.9072 -0.105754 0.788424 0.597846 -0.144801 
-20.3968 -10.3007 0.841714 0.321163 0.945081 0.0606234 
-20.0254 -10.4054 0.226277 0.347216 0.937296 -0.0303017 
-20.0256 -10.4037 0.20827 0.305998 0.951198 -0.0398458 
-20.0271 -10.4037 0.155195 0.37734 0.924398 -0.0557043 
-20.587 -10.2328 -2.38193 0.319414 0.944438 -0.0775346 
-20.1792 -10.3778 -0.998114 0.327358 0.941647 0.0783373 
-20.3546 -10.31 -1.89241 0.360881 0.931878 0.0369926 
-16.4576 -8.79975 1.67383 0.0125097 0.46317 -0.886181 
-19.8742 -10.4699 -0.57251 0.32499 0.945622 0.0134507 
-16.4353 -8.8058 1.67092 0.344786 0.871697 -0.348234 
-18.6934 -10.0292 0.338394 0.337808 0.940377 -0.0397005 
-18.5552 -10.0744 0.49931 0.317006 0.948409 0.00533194 
-18.433 -10.1082 0.362651 0.330199 0.941855 0.0622791 
-19.8054 -10.5057 -1.83942 0.152495 0.986359 -0.0619773 
-18.1953 -10.1882 0.504227 0.291972 0.956426 0.00106508 
-18.188 -10.1939 0.517545 0.274133 0.96058 0.0462286 
-19.557 -10.5809 -1.83815 0.379836 0.924892 -0.0172855 
-19.5024 -10.6028 -1.66998 0.368273 0.928169 0.0536416 
-18.047 -10.2373 0.496612 0.315471 0.948888 0.00947737 
-19.5669 -10.5684 -2.52279 0.3766 0.926281 -0.0132491 
-17.9313 -10.2748 0.504569 0.307286 0.951585 -0.00785275 
-19.424 -10.6389 -2.54104 0.418882 0.907758 0.0226746 
-19.0757 -10.7281 -1.55136 0.235047 0.971209 -0.0388111 
-19.2186 -10.6923 -2.22624 0.345248 0.938025 0.0302228 
-17.7896 -10.3182 0.389894 0.303103 0.952731 0.0207824 
-19.227 -10.6808 -2.37519 0.331907 0.943255 -0.0104109 
-18.3525 -10.6119 -0.48663 0.556489 0.723717 0.40811 
-19.0448 -10.739 -2.1719 0.274497 0.961153 0.0289198 
-19.2262 -10.701 -2.88904 0.349077 0.932405 0.0936269 
-17.5656 -10.3892 0.516862 0.269577 0.96284 -0.0163462 
-18.8083 -10.8175 -1.86184 0.284311 0.957801 0.042249 
-18.1891 -10.6761 -0.65341 0.619044 0.755272 0.215287 
-17.3272 -10.4683 0.51424 0.332418 0.943087 0.00920756 
-17.9664 -10.7274 -1.32747 0.582579 0.651191 0.486367 
-18.5623 -10.9031 -2.57075 0.165342 0.986205 -0.00783061 
-18.5435 -10.9073 -2.53633 0.297047 0.953737 -0.0463504 
-18.5437 -10.9067 -2.55824 0.246487 0.968993 -0.0172391 
-18.4691 -10.9257 -2.54271 0.244689 0.969161 -0.0292463 
-17.0853 -10.542 0.374413 0.294734 0.955462 -0.0149537 
-17.7763 -10.7875 -1.37904 0.509029 0.800749 0.315737 
-17.7457 -10.7943 -1.6341 0.800952 0.596837 0.0475602 
-17.7348 -10.8013 -1.6147 0.751272 0.657019 0.0625841 
-17.696 -10.8102 -1.83448 0.580397 0.778955 0.237422 
-17.1426 -10.8376 -0.0464886 0.31075 0.950177 0.0244672 
-16.8594 -10.904 -0.965599 0.10923 0.983186 -0.146334 
-16.8486 -10.9042 -0.999913 -0.0106335 0.990101 -0.139954 
-16.4925 -10.7629 -0.410578 0.51915 0.637078 -0.56975 
-16.5942 -10.8621 -0.788688 0.762024 0.475085 -0.440016 
-16.5361 -10.9045 -0.756519 0.707059 0.5173 -0.48215 
-16.5589 -11.0576 -0.603111 0.590198 0.780897 0.204611 
-16.0674 -10.8598 0.503453 0.332283 0.942844 0.0251426 
-16.6181 -10.9624 -1.28143 0.349278 0.885207 0.307268 
-16.2777 -10.9588 -0.229889 0.639156 0.643987 -0.420427 
-16.2878 -10.9543 -0.266468 0.685702 0.500061 -0.528916 
-16.5318 -11.0669 -0.964063 0.757477 0.639485 -0.131484 
-16.7811 -10.7061 -2.99031 0.441102 0.791955 0.422181 
-15.9298 -10.8997 0.368219 0.300618 0.953417 0.0250039 
-16.7256 -10.7245 -2.99293 0.359892 0.909663 0.207343 
-16.1898 -11.1303 -0.187247 0.842171 0.465761 0.271688 
-16.1875 -11.127 -0.210543 0.884288 0.459601 0.0824715 
-16.3567 -10.9 -2.5528 0.305251 0.951775 0.0307442 
-16.0149 -11.1766 -0.738776 0.290541 0.956782 -0.0124099 
-16.3422 -10.8406 -2.99062 0.0302254 0.994559 -0.099698 
-15.9355 -11.2057 -0.962736 0.473019 0.871618 0.128585 
-15.7612 -11.4595 -0.416224 0.277792 0.960572 0.0115401 
-15.7133 -11.4219 -1.94058 0.326045 0.939463 0.10537 
-15.5547 -11.483 -1.40906 -0.0996191 0.993344 0.05782 
-15.5153 -11.4912 -1.38599 -0.0597053 0.970678 0.23285 
-15.1407 -11.964 -1.86022 0.281075 0.958638 0.044838 
-15.3358 -11.9084 -3.31475 0.311849 0.949353 0.0384571 
-15.3351 -11.9047 -3.33178 0.300653 0.953461 0.0228203 
-15.2027 -11.9406 -2.77004 0.295045 0.954968 -0.0313673 
-15.1623 -11.949 -3.08225 0.283717 0.958764 -0.0166504 
-15.0412 -12.0061 -2.5415 0.245961 0.938424 -0.24262 
-15.0645 -11.9753 -3.09959 0.261665 0.965112 -0.00949674 
-15.0781 -11.9813 -3.25037 0.303821 0.952694 -0.00823539 
-14.8903 -12.0471 -2.87109 0.330568 0.94353 0.0218114 
-20.4719 -10.2647 0.9262 0.486648 0.873382 0.0194304 
-20.1651 -10.3772 1.22542 0.345189 0.935865 -0.070714 
-20.0897 -10.3815 0.896301 0.283826 0.958127 0.037891 
-20.358 -10.3204 -0.26078 0.0987074 0.964337 -0.245584 
-19.9006 -10.4595 0.935795 0.39928 0.916817 -0.00478845 
-19.8954 -10.4657 0.905436 0.360991 0.93181 0.0376364 
-20.0365 -10.3979 0.181666 0.280225 0.957808 -0.0638563 
-20.4786 -10.2714 -1.58136 0.627814 0.60676 -0.487537 
-20.8229 -10.1653 -2.76783 -0.155466 0.843479 -0.514173 
-19.6367 -10.5488 0.646968 0.33593 0.939563 0.0661185 
-19.7174 -10.5298 0.162709 0.282418 0.956395 0.0744923 
-19.9575 -10.4599 -1.01296 0.339559 0.924419 0.173635 
-20.134 -10.4031 -2.56875 0.287234 0.957748 -0.0146849 
-19.3583 -10.6272 0.0783074 0.346405 0.932779 0.0996372 
-16.5558 -8.87479 0.950833 0.278454 0.959717 -0.0375087 
-19.3205 -10.6241 0.0882932 0.182692 0.981269 0.0611107 
-19.3276 -10.6386 0.0490319 0.356274 0.932969 0.0513654 
-16.4189 -8.92366 1.29884 0.279758 0.956675 0.0806716 
-16.4778 -8.90663 0.937855 0.30613 0.951306 -0.0360704 
-19.6071 -10.5647 -1.32826 0.34421 0.938594 0.0236826 
-19.2969 -10.6514 -0.368659 0.244428 0.968815 0.0406582 
-16.3786 -8.93572 1.06347 0.337042 0.941415 0.0118506 
-18.1305 -10.2072 0.502948 0.308467 0.951232 0.00237678 
-18.5547 -10.1989 -0.828389 0.828232 0.554827 -0.0787258 
-19.7693 -10.5319 -2.95012 0.434293 0.897919 0.071638 
-19.7688 -10.5131 -3.06666 0.313616 0.949357 0.0191555 
-18.0237 -10.2305 0.508744 0.294222 0.953977 -0.0579863 
-19.5218 -10.5839 -2.49294 0.322661 0.944857 -0.0560014 
-18.5371 -10.554 -0.352872 0.746346 0.658634 0.0957475 
-16.0661 -9.02905 1.08443 0.316668 0.948496 -0.00871592 
-16.0391 -9.03757 1.16153 0.309001 0.950861 -0.0195233 
-16.0341 -9.04036 1.14033 0.303783 0.952675 -0.0112554 
-15.9706 -9.05883 1.17039 0.291168 0.956426 -0.0217063 
-19.0917 -10.7196 -1.89202 0.287751 0.956486 -0.048302 
-19.2129 -10.6886 -2.37766 0.363075 0.93176 -0.0007638 
-19.3693 -10.6257 -3.17864 0.286942 0.95748 -0.0299195 
-19.3569 -10.6436 -3.11219 0.317345 0.948077 -0.0210222 
-19.1032 -10.728 -2.15259 0.304827 0.951501 -0.0415477 
-19.3606 -10.6461 -3.1996 0.316752 0.947928 -0.0331851 
-18.2475 -10.6876 -0.0947304 0.284564 0.958496 -0.017554 
-18.8357 -10.8085 -1.61173 0.335237 0.941914 0.0203415 
-18.8245 -10.8131 -2.17987 0.257345 0.965452 -0.0409344 
-18.8033 -10.8187 -2.18038 0.224166 0.973875 -0.036288 
-18.1308 -10.6912 -0.983215 0.864091 0.500006 0.0577984 
-17.8833 -10.808 -0.206975 0.216462 0.974782 0.0542581 
-18.5623 -10.9025 -2.54233 0.280723 0.959451 -0.0254671 
-17.8112 -10.8289 -0.866524 0.277181 0.960787 -0.00769761 
-18.5456 -10.896 -2.96159 0.302301 0.951957 0.048914 
-17.0758 -10.5491 0.361268 0.33124 0.886194 -0.323945 
-17.282 -10.787 -0.203832 0.297756 0.954556 0.0128037 
-17.233 -10.8107 -0.456225 0.29878 0.95381 0.0312484 
-17.119 -10.8372 -0.731178 0.302024 0.953299 0.00177414 
-17.0652 -10.8525 -0.748545 0.432836 0.900912 -0.0317881 
-17.1167 -10.5995 -2.24995 0.178958 0.960196 0.21447 
-16.5059 -10.7415 -0.390873 0.478041 0.486597 -0.731232 
-16.0916 -10.8581 0.573763 0.31691 0.947816 0.034835 
-16.5701 -11.0496 -0.583759 0.886527 0.400442 0.231767 
-16.7595 -10.7721 -2.55196 0.284932 0.958521 0.00713059 
-16.481 -11.061 -0.865112 0.662581 0.612033 -0.431743 
-16.5257 -11.1096 -0.932206 -0.295639 0.955114 0.0188312 
-15.8528 -10.9253 0.38839 0.27751 0.960578 0.0166678 
-15.8373 -10.9299 0.377068 0.284176 0.958755 0.00579145 
-16.1151 -11.159 -0.450738 0.272932 0.960819 0.0483303 
-16.2138 -10.7604 -2.78659 0.0697744 0.977071 0.201156 
-15.9114 -11.2101 -0.465336 0.296298 0.955083 0.00496229 
-16.3095 -10.8488 -3.01482 0.0406787 0.914313 0.40296 
-15.7706 -11.4585 -0.404814 0.272093 0.962178 0.0133569 
-15.8162 -10.9946 -2.22817 0.903723 0.362655 0.227522 
-15.5839 -11.5162 -0.966708 0.292275 0.955968 0.0264753 
-15.7984 -11.7669 -3.48387 0.837634 0.506161 -0.205353 
-15.0758 -11.9799 -1.88478 0.30126 0.952555 0.0433736 
-14.996 -12.0045 -2.10484 0.335463 0.941775 -0.0229081 
-15.1641 -11.9585 -3.16186 0.416168 0.905779 -0.0798017 
-14.9429 -12.0213 -2.53476 0.311682 0.950096 -0.0131031 
-15.0329 -11.9895 -3.35985 0.351203 0.934805 -0.0528752 
-14.8792 -12.0465 -2.8984 0.336884 0.941203 0.0254098 
-14.7849 -12.0758 -2.98211 0.340927 0.93931 0.0382917 
-14.7624 -12.096 -2.92212 0.372409 0.926009 0.0617906 
-14.7602 -12.0816 -3.19137 0.311174 0.950314 0.00859458 
-20.7409 -10.174 0.444479 0.722575 0.66271 -0.196728 
-20.5034 -10.2515 0.908878 0.304369 0.945289 -0.117427 
-19.9206 -10.4499 1.23943 0.510998 0.813782 0.27684 
-20.5475 -10.2692 -1.01751 0.119442 0.98615 0.11507 
-19.9438 -10.4193 0.766744 0.365804 0.930689 0.00205068 
-19.8507 -10.4598 0.4567 0.308853 0.951097 0.00496156 
-19.4008 -10.6101 0.101929 0.3341 0.941408 0.046136 
-16.1586 -8.9076 1.65972 0.0158607 0.921705 -0.387568 
-19.4453 -10.604 -1.03018 0.264201 0.96428 0.0190134 
-19.5502 -10.5922 -3.30484 0.903657 0.428027 0.0140469 
-17.8121 -10.308 0.344369 0.299038 0.954216 0.00690675 
-17.7787 -10.3231 0.405965 0.301432 0.95296 0.0317198 
-19.3686 -10.633 -3.09068 0.293855 0.954382 -0.0529578 
-17.8354 -10.7903 -0.631275 0.120733 0.970425 -0.209044 
-18.5881 -10.8855 -2.60637 0.368345 0.92968 0.00404299 
-17.6792 -10.8523 -0.452421 0.727956 0.685139 0.0257799 
-18.5292 -10.8962 -3.06382 0.32905 0.944295 -0.00576034 
-17.7375 -10.804 -1.41857 0.571354 0.8074 0.147173 
-17.1628 -10.8147 -0.251226 0.31929 0.947468 0.0189243 
-17.1418 -10.8402 -0.323948 0.301347 0.953485 0.00756064 
-16.5797 -10.6984 0.362093 0.294295 0.954104 0.0554627 
-16.5533 -10.7016 0.349394 0.312932 0.947654 0.0634429 
-16.2575 -10.8 0.518978 0.289445 0.957037 -0.0173937 
