13.7403 -1.12514 11.8219
13.9749 -1.07777 11.804
14.1979 -0.988285 11.7451
14.4208 -0.898803 11.6861
14.6613 -0.872509 11.6888
14.8939 -0.818132 11.6641
15.1383 -0.768805 11.6455
15.3633 -0.686344 11.5934
15.6017 -0.653028 11.5892
15.8236 -0.563357 11.5161
16.0505 -0.487919 11.4709
16.2754 -0.368374 11.3838
16.5119 -0.328035 11.3727
16.7543 -0.308764 11.3823
16.9579 -0.149064 11.2548
17.1848 -0.03654 11.1746
17.4 0.0810392 11.0882
17.6298 0.179696 11.0075
17.8605 0.241095 10.976
18.097 0.281432 10.965
18.3316 0.328789 10.9471
18.5449 0.490466 10.8189
18.766 0.586974 10.7531
18.987 0.683481 10.6872
19.1915 0.873426 10.5175
19.4242 0.927804 10.4928
19.6587 0.975162 10.4749
19.8857 1.08768 10.3947
20.1241 1.121 10.3905
20.3627 1.15431 10.3864
20.5799 1.30195 10.2718
20.8028 1.39143 10.2129
21.055 1.37559 10.2567
21.2759 1.4721 10.1909
21.5009 1.55456 10.1388
21.7568 1.52468 10.1962
22.005 1.52288 10.2264
22.2358 1.62137 10.1598
22.4839 1.61957 10.1899
22.7243 1.64586 10.1926
22.9551 1.70726 10.161
23.1897 1.75462 10.1432
23.4417 1.73878 10.1869
23.6958 1.71591 10.2376
23.9508 1.69288 10.3023
24.2029 1.67704 10.3461
24.4549 1.66119 10.3899
24.705 1.6153 10.4619
24.9814 1.51501 10.602
25.2354 1.49216 10.6526
25.497 1.40413 10.7657
25.7753 1.25974 10.9477
26.041 1.19474 11.0394
26.3212 1.04334 11.2282
26.5996 0.936039 11.3752
26.905 0.656267 11.6881
27.1686 0.598299 11.773
27.443 0.46796 11.9412
27.7008 0.393972 12.0406
27.9908 0.24454 12.2286
28.2718 0.0492065 12.4452
28.5541 -0.0721377 12.6058
28.8079 -0.13208 12.6915
29.0921 -0.297532 12.894
29.3616 -0.376567 12.9995
29.6069 -0.401579 13.0649
29.8589 -0.417419 13.1087
30.1245 -0.519494 13.2355
30.3726 -0.521287 13.2656
30.6084 -0.474114 13.2618
30.8585 -0.482933 13.2988
31.1065 -0.521806 13.3639
31.3412 -0.474454 13.346
31.5933 -0.490293 13.3898
31.8375 -0.478044 13.4062
32.0741 -0.437713 13.3952
32.3048 -0.376308 13.3636
32.551 -0.408168 13.4219
32.7875 -0.330749 13.3759
33.0251 -0.327678 13.414
33.2637 -0.294368 13.4098
33.5041 -0.268077 13.4125
33.725 -0.171564 13.3467
33.9888 -0.229538 13.4316
34.2175 -0.161113 13.3932
34.4638 -0.155891 13.4164
34.7119 -0.19477 13.4815
34.9465 -0.147412 13.4637
35.2093 -0.198539 13.5558
35.4555 -0.230398 13.6141
35.7113 -0.29736 13.7065
35.9615 -0.306179 13.7435
36.2019 -0.279889 13.7462
36.4433 -0.290859 13.798
36.6935 -0.299678 13.8349
36.9436 -0.308496 13.8719
37.182 -0.275179 13.8677
37.4089 -0.19974 13.8225
37.6513 -0.18047 13.832
37.8742 -0.0909827 13.773
38.1147 -0.0646926 13.7757
38.3357 0.0318147 13.7099
38.5644 0.10024 13.6715
38.7894 0.1827 13.6194
39.0241 0.26714 13.5665
39.2498 0.342765 13.5072
39.4786 0.411184 13.4687
39.6879 0.549827 13.3618
39.9207 0.641289 13.3021
40.1476 0.716728 13.2568
40.3637 0.864544 13.1282
40.5769 0.989139 13.035
40.8058 1.09464 12.9616
41.0036 1.31249 12.7786
41.2158 1.43727 12.6712
41.4157 1.68518 12.4601
41.6503 1.73253 12.4422
41.8723 1.85928 12.3342
42.0738 2.02601 12.1998
42.2911 2.17364 12.0853
42.4976 2.39364 11.8874
42.6866 2.63977 11.6629
42.8806 2.90874 11.4312
43.0717 3.18492 11.1785
43.2548 3.4521 10.9334
45.6474 8.78192 5.96847
45.3626 8.95418 5.77324
45.9334 8.57239 6.21281
46.2194 8.3628 6.45721
46.4938 8.2325 6.62542
46.7535 8.15148 6.73163
47.0055 8.09855 6.81043
47.2721 7.99627 6.95131
47.5339 7.94538 7.02932
47.7782 7.95763 7.04571
48.0108 8.01194 7.02105
48.2435 8.06634 6.99632
48.4762 8.12072 6.97162
48.6973 8.25434 6.87077
48.9165 8.3949 6.76315
49.1551 8.4653 6.72399
49.3828 8.571 6.63646
49.6096 8.64647 6.59117
49.8211 8.8522 6.42115
50.0295 9.02814 6.2651
50.2467 9.17573 6.15062
-40.4511 -10.2802 13.8494
-40.7148 -10.2593 13.7994
-40.2184 -10.2258 13.8247
-40.0031 -10.1082 13.7383
-39.7686 -10.0608 13.7204
-39.462 -10.1991 13.886
-39.2236 -10.1658 13.8819
-38.9412 -10.2501 14.0076
-38.6065 -10.4868 14.2832
-38.3039 -10.6111 14.4351
-37.4632 -11.5846 15.5056
-37.8515 -11.1952 15.0659
-37.2324 -11.5232 15.474
-36.9552 -11.5933 15.5719
-36.6592 -11.7267 15.7455
-36.4324 -11.6512 15.7002
-36.1667 -11.6792 15.757
-35.8396 -11.8878 16.0052
-35.6109 -11.8195 15.9669
-35.4066 -11.7036 15.8671
-35.1068 -11.814 16.0194
-34.6758 -12.3579 16.6099
-34.3294 -12.6369 16.9267
-34.0598 -12.6788 16.9971
-33.7891 -12.721 17.0817
-33.4748 -12.9244 17.3096
-33.1216 -13.2246 17.6611
-32.8442 -13.2946 17.7589
-32.5708 -13.3505 17.843
-32.3245 -13.3453 17.8663
-31.9956 -13.5611 18.1214
-31.7424 -13.5771 18.1793
-31.5059 -13.5367 18.1683
-31.2713 -13.4894 18.1504
-31.027 -13.4771 18.1668
-30.8099 -13.3666 18.0873
-30.5958 -13.2488 17.9868
-30.363 -13.1944 17.9621
-30.2557 -12.7646 17.5548
-30.0659 -12.5929 17.4144
-29.8654 -12.4631 17.301
-29.5997 -12.491 17.3578
-29.4233 -12.2701 17.1694
-29.21 -12.1454 17.0761
-28.9716 -12.1121 17.072
-28.7409 -12.0508 17.0404
-28.5346 -11.942 16.9475
-28.2522 -12.0263 17.0732
-27.9846 -12.0612 17.1368
-27.7403 -12.0489 17.1532
-27.529 -11.9173 17.0532
-27.3468 -11.7175 16.8853
-27.0909 -11.7474 16.9428
-26.8582 -11.693 16.9181
-26.6314 -11.6175 16.8728
-26.3851 -11.6123 16.8961
-26.1117 -11.6683 16.9803
-25.8887 -11.5788 16.9213
-25.6754 -11.4542 16.828
-25.404 -11.5403 16.9404
-25.1907 -11.4156 16.8471
-24.9775 -11.2911 16.7539
-24.7623 -11.2106 16.7025
-24.5715 -11.0085 16.5198
-24.3485 -10.9191 16.4609
-24.1062 -10.8998 16.4705
-23.787 -11.1175 16.7262
-23.4425 -11.3894 17.0362
-23.1808 -11.4403 17.1142
-22.8849 -11.5738 17.2879
-22.6212 -11.6317 17.3727
-22.3905 -11.5703 17.3412
-22.1559 -11.523 17.3233
-21.858 -11.6634 17.5038
-21.5924 -11.7284 17.5955
-21.3675 -11.6459 17.5435
-21.1037 -11.6668 17.5933
-20.8448 -11.7039 17.6718
-20.6364 -11.5651 17.5508
-20.4388 -11.4214 17.4377
-20.2314 -11.2757 17.324
-20.0025 -11.2073 17.2855
-19.7602 -11.188 17.2951
-19.512 -11.1898 17.3252
-19.293 -11.0863 17.2525
-19.0711 -10.9966 17.1795
-18.8237 -10.9916 17.2168
-18.6058 -10.8878 17.13
-18.4139 -10.7231 16.9964
-18.1559 -10.7229 17.0258
-17.9427 -10.6354 16.9676
-17.7178 -10.553 16.9155
-17.4346 -10.6441 17.0339
-17.1563 -10.7514 17.1809
-16.9236 -10.697 17.1562
-16.7289 -10.5091 16.9872
-16.504 -10.4266 16.9351
-16.181 -10.6583 17.2046
-15.8929 -10.8007 17.3858
-15.6466 -10.7955 17.409
-15.4295 -10.6849 17.3295
-15.1968 -10.6305 17.3048
-14.9642 -10.5762 17.2801
-14.7733 -10.3741 17.0974
-14.5329 -10.3478 17.1001
-14.2983 -10.3005 17.0823
-14.1064 -10.1358 16.9487
-13.906 -9.96882 16.8002
-13.6965 -9.83021 16.6933
-13.4968 -9.65642 16.5521
-13.2758 -9.55995 16.4863
-13.0676 -9.45817 16.4003
-12.8562 -9.32659 16.3002
-12.6216 -9.27922 16.2824
-12.3987 -9.18971 16.2234
-12.1583 -9.16349 16.2261
-11.9236 -9.11612 16.2083
-11.6521 -9.16506 16.2855
-11.4311 -9.06859 16.2198
-11.1907 -9.0423 16.2224
-10.9483 -9.02303 16.232
-10.7215 -8.94756 16.1867
-10.483 -8.91424 16.1825
-10.2445 -8.88093 16.1784
-10.006 -8.84761 16.1742
-9.74317 -8.89876 16.2664
-9.51051 -8.84437 16.2417
-9.29336 -8.73386 16.1622
-9.06181 -8.67928 16.1233
-8.84658 -8.56168 16.0369
-8.61392 -8.50728 16.0122
-8.38126 -8.45297 15.9876
-8.17962 -8.28619 15.8532
-7.95665 -8.19675 15.7943
-7.74836 -8.05789 15.6732
-7.53122 -7.94738 15.5937
-7.31212 -7.84382 15.521
-7.12414 -7.66503 15.3738
-6.91779 -7.51922 15.2459
-6.73359 -7.28923 15.0499
-6.55634 -7.03813 14.8193
-6.3907 -6.74481 14.5475
-6.17549 -6.6272 14.4611
-5.95446 -6.53074 14.3954
-5.74423 -6.3989 14.2812
-5.51738 -6.32344 14.2359
-5.30799 -6.18484 14.129
-5.08696 -6.0883 14.0631
-4.88836 -5.91439 13.9079
-4.75764 -5.49472 13.5128
-4.62109 -5.09609 13.1383
-4.39425 -5.02064 13.0931
-4.15383 -4.99435 13.0958
-3.91147 -4.97508 13.1053
-3.67105 -4.9488 13.108
-3.39454 -5.01199 13.2131
-3.15218 -4.99272 13.2226
-2.89431 -5.02963 13.287
-2.65195 -5.01036 13.2965
-2.3999 -5.0262 13.3403
-2.1905 -4.88756 13.2334
-1.93651 -4.91042 13.2841
-1.69221 -4.89817 13.3005
-1.44396 -4.86289 13.2956
-1.18304 -4.90699 13.3809
-0.948435 -4.85964 13.363
-0.726579 -4.76997 13.2899
-0.483108 -4.75088 13.3136
-0.242686 -4.72459 13.3163
0.00548204 -4.72639 13.3464
0.25172 -4.72116 13.3696
0.48834 -4.64375 13.3236
0.715192 -4.5683 13.2783
0.971123 -4.59819 13.3358
1.21349 -4.57892 13.3454
1.46553 -4.59476 13.3892
1.69626 -4.53336 13.3576
1.91341 -4.4228 13.2781
2.15965 -4.41758 13.3013
2.39037 -4.35618 13.2698
2.63273 -4.33691 13.2793
2.86936 -4.25949 13.2333
3.09426 -4.17703 13.1812
3.34244 -4.17882 13.2113
3.56152 -4.07529 13.1386
3.79031 -4.00688 13.1002
4.03074 -3.98058 13.1029
4.25758 -3.90514 13.0576
4.47474 -3.79459 12.9781
4.72686 -3.77335 12.9869
4.98086 -3.79621 13.0376
5.22128 -3.76992 13.0403
5.43261 -3.6383 12.9402
5.65945 -3.56286 12.8949
5.87661 -3.4523 12.8154
6.10927 -3.39793 12.7907
6.34775 -3.36462 12.7865
6.59795 -3.33635 12.7885
6.82286 -3.25388 12.7364
7.05746 -3.20653 12.7185
7.28126 -3.12388 12.6523
7.53636 -3.14692 12.717
7.75434 -3.04321 12.6303
7.98507 -2.98182 12.5987
8.21781 -2.89035 12.539
8.44461 -2.81491 12.4937
8.67343 -2.74649 12.4553
8.8867 -2.62189 12.3621
9.10774 -2.52539 12.2963
9.33848 -2.46399 12.2647
9.58677 -2.42871 12.2598
9.83297 -2.42347 12.2831
10.0462 -2.29888 12.1899
10.2506 -2.14602 12.0551
10.4795 -2.0776 12.0167
10.7218 -2.05832 12.0263
10.9943 -2.14456 12.1527
11.2251 -2.08316 12.1211
11.4296 -1.89322 11.9514
11.6622 -1.83884 11.9267
11.9046 -1.81957 11.9362
12.1566 -1.83541 11.98
12.3854 -1.76699 11.9416
12.6308 -1.75492 11.9721
12.8469 -1.60711 11.8435
13.0757 -1.53868 11.8051
13.3045 -1.47027 11.7667
13.541 -1.42993 11.7556
13.766 -1.31039 11.6685
13.9891 -1.2209 11.6096
14.2314 -1.20163 11.6191
14.4795 -1.20343 11.6492
14.7083 -1.135 11.6108
14.9488 -1.10872 11.6135
15.1814 -1.05434 11.5888
15.3967 -0.899683 11.4674
15.5933 -0.718727 11.3053
15.8242 -0.620249 11.2387
16.0724 -0.622044 11.2688
16.2934 -0.525539 11.203
16.528 -0.478178 11.1851
16.749 -0.381673 11.1193
16.9818 -0.290211 11.0596
17.2261 -0.277962 11.076
17.4412 -0.16039 10.9896
17.6631 -0.0707239 10.9166
17.8862 0.0558445 10.8226
18.0956 0.194481 10.7157
18.3243 0.262906 10.6773
18.5707 0.30521 10.6655
18.7692 0.479141 10.5102
19.0039 0.526493 10.4924
19.223 0.667108 10.3847
19.4441 0.763616 10.3189
19.6845 0.789906 10.3216
19.9153 0.888387 10.255
20.1189 1.04809 10.1276
20.3632 1.06034 10.1439
20.6074 1.07259 10.1603
20.8344 1.18511 10.0801
21.0465 1.30989 9.97275
21.2753 1.37831 9.93434
21.51 1.46275 9.88148
21.766 1.43286 9.93899
22.0134 1.43791 9.97634
22.2537 1.46421 9.97901
22.4922 1.49752 9.97486
22.7385 1.50274 9.99812
22.9506 1.62752 9.89078
23.2057 1.60447 9.95554
23.4578 1.58863 9.99934
23.7098 1.57279 10.0431
23.9502 1.59909 10.0458
24.2004 1.59026 10.0828
24.4516 1.58127 10.1338
24.7095 1.54436 10.1982
24.975 1.44229 10.3249
25.2572 1.32095 10.4856
25.5034 1.28909 10.5438
25.7972 1.12562 10.7456
26.055 1.05163 10.8449
26.3237 0.979435 10.9576
26.6067 0.814164 11.1461
26.8967 0.627644 11.3691
27.1847 0.448151 11.5853
27.4862 0.219508 11.8495
27.7362 0.173608 11.9215
28.0165 0.0222024 12.1103
28.2976 -0.0989623 12.2568
28.5797 -0.257388 12.4525
28.8395 -0.338397 12.5587
29.1042 -0.433632 12.6927
29.3582 -0.456491 12.7433
29.6141 -0.523459 12.8358
29.8904 -0.623736 12.9759
30.1386 -0.662616 13.041
30.3925 -0.685475 13.0917
30.6417 -0.724535 13.1709
30.8958 -0.747397 13.2215
31.1323 -0.707062 13.2105
31.3727 -0.680772 13.2132
31.6286 -0.710652 13.2707
31.8671 -0.677341 13.2666
32.0959 -0.608922 13.2281
32.3364 -0.582632 13.2308
32.5759 -0.586582 13.2758
32.8065 -0.525178 13.2442
33.0586 -0.541017 13.288
33.3068 -0.542814 13.3181
33.5472 -0.516524 13.3208
33.776 -0.448105 13.2824
33.999 -0.358618 13.2234
34.2394 -0.332328 13.2261
34.4779 -0.299012 13.2219
34.7318 -0.358958 13.3076
34.9927 -0.403064 13.3929
35.2582 -0.505135 13.5197
35.5025 -0.529974 13.5711
35.7449 -0.510703 13.5806
35.9852 -0.484408 13.5833
36.2345 -0.486385 13.6275
36.4788 -0.511224 13.6789
36.7328 -0.534083 13.7295
36.9615 -0.502745 13.7261
37.2018 -0.476449 13.7288
37.4326 -0.415051 13.6972
37.673 -0.38876 13.6999
37.9018 -0.320341 13.6615
38.1325 -0.258942 13.63
38.3652 -0.204564 13.6052
38.5979 -0.113104 13.5455
38.8151 -0.0025501 13.466
39.042 0.0728902 13.4208
39.2727 0.134289 13.3892
39.5082 0.211887 13.3291
39.7292 0.308393 13.2633
39.9522 0.397882 13.2043
40.1675 0.552539 13.0829
40.3904 0.642022 13.024
40.6124 0.768771 12.9159
40.8161 0.965556 12.7534
41.0409 1.04802 12.7013
41.2473 1.23095 12.5384
41.451 1.42774 12.376
41.6779 1.50318 12.3307
41.8785 1.74425 12.1123
42.0996 1.84075 12.0465
42.3071 2.0235 11.8977
42.5156 2.23648 11.7067
42.7212 2.42624 11.5511
42.916 2.6513 11.3471
43.0935 3.01371 11.0114
43.2554 3.39521 10.656
45.65 8.71803 5.69788
45.3891 8.76215 5.61257
45.9379 8.50141 5.94913
46.2228 8.29206 6.17937
46.5067 8.0895 6.41691
46.7811 7.92211 6.62013
47.0293 7.92031 6.65024
47.2891 7.87637 6.72146
47.5499 7.79516 6.84177
47.7942 7.80741 6.85816
48.0385 7.81966 6.87455
48.2808 7.83893 6.88409
48.5077 7.91439 6.83882
48.7308 8.04098 6.74483
48.9635 8.13245 6.68511
49.1806 8.24296 6.60562
49.3988 8.38378 6.48385
49.6315 8.47525 6.42413
49.8487 8.62284 6.30964
50.0814 8.71431 6.24992
50.2802 8.96245 6.0246
50.4698 9.30232 6.05663
50.48 9.17325 5.84846
-39.9386 -10.3968 13.6869
-40.1557 -10.5074 13.7664
-39.7195 -10.2933 13.6143
-39.4208 -10.4406 13.7875
-39.1745 -10.3983 13.7757
-38.936 -10.3649 13.7716
-38.6615 -10.4211 13.8698
-38.3375 -10.6226 14.0971
-37.2273 -11.6381 15.2381
-37.5162 -11.5259 15.0991
-36.9741 -11.6541 15.2959
-36.7142 -11.6609 15.3322
-36.4368 -11.731 15.4301
-36.1623 -11.7872 15.5283
-35.852 -11.9766 15.7426
-35.5813 -12.0188 15.8272
-35.3633 -11.915 15.7404
-35.1179 -11.903 15.7709
-34.8231 -12.0362 15.9304
-34.431 -12.4397 16.3839
-34.0807 -12.7326 16.7143
-33.7917 -12.8448 16.8533
-33.521 -12.887 16.9379
-33.1843 -13.1307 17.2203
-32.9284 -13.1606 17.2778
-32.6072 -13.3482 17.5055
-32.3862 -13.2517 17.4397
-32.1516 -13.2044 17.4218
-31.8285 -13.4361 17.6914
-31.5881 -13.4098 17.6941
-31.3554 -13.3554 17.6693
-31.1451 -13.2236 17.5551
-30.9785 -12.9676 17.3325
-30.7547 -12.8849 17.2663
-30.5415 -12.7974 17.2081
-30.2797 -12.8113 17.2511
-30.0226 -12.8413 17.3227
-29.8074 -12.7237 17.2363
-29.6206 -12.5448 17.0749
-29.4248 -12.357 16.9201
-29.1979 -12.2816 16.8749
-28.9644 -12.234 16.8429
-28.7531 -12.1395 16.7778
-28.501 -12.1182 16.7866
-28.2898 -12.0237 16.7216
-28.0171 -12.0729 16.8129
-27.7418 -12.1359 16.904
-27.5305 -12.0413 16.8389
-27.2998 -11.9799 16.8073
-27.0691 -11.9186 16.7758
-26.8442 -11.8361 16.7236
-26.6301 -11.7183 16.6231
-26.4071 -11.6289 16.5642
-26.1384 -11.701 16.6769
-25.9398 -11.5271 16.5216
-25.7731 -11.2711 16.299
-25.5152 -11.308 16.3633
-25.2166 -11.4552 16.5365
-24.9731 -11.4362 16.5602
-24.7668 -11.2903 16.4323
-24.5827 -11.0975 16.2714
-24.3364 -11.0552 16.2596
-24.1017 -11.0078 16.2417
-23.7671 -11.2816 16.5523
-23.4382 -11.5345 16.8425
-23.1725 -11.5624 16.8992
-22.8611 -11.7519 17.1276
-22.6013 -11.7959 17.1988
-22.3725 -11.7274 17.1604
-22.1204 -11.7433 17.2042
-21.8226 -11.8837 17.3847
-21.5395 -11.9749 17.5031
-21.3417 -11.8312 17.3901
-21.1014 -11.8049 17.3928
-20.8687 -11.7505 17.3681
-20.6321 -11.7102 17.3571
-20.4247 -11.5645 17.2432
-20.2164 -11.4257 17.1222
-19.9807 -11.3785 17.1185
-19.7685 -11.2538 17.0112
-19.5223 -11.2485 17.0344
-19.2877 -11.2012 17.0166
-19.0609 -11.1257 16.9713
-18.8359 -11.0432 16.9192
-18.6247 -10.9487 16.8541
-18.4308 -10.7539 16.6924
-18.1846 -10.7487 16.7156
-17.9306 -10.7716 16.7663
-17.696 -10.7242 16.7484
-17.4167 -10.8012 16.8531
-17.1704 -10.796 16.8764
-16.9211 -10.798 16.9206
-16.7167 -10.6452 16.7859
-16.4899 -10.5697 16.7406
-16.1999 -10.7191 16.9286
-15.8865 -10.9157 17.1639
-15.5975 -11.0279 17.3029
-15.3921 -10.9123 17.2173
-15.1847 -10.7667 17.1035
-15.023 -10.4964 16.853
-14.8117 -10.3647 16.7529
-14.5828 -10.2964 16.7146
-14.3211 -10.3473 16.7926
-14.1002 -10.2508 16.7268
-13.8674 -10.1964 16.7021
-13.6979 -9.91714 16.444
-13.4653 -9.86275 16.4193
-13.2997 -9.60658 16.1826
-13.0865 -9.48195 16.0894
-12.8538 -9.42756 16.0646
-12.5979 -9.45746 16.1221
-12.3749 -9.36794 16.0632
-12.1228 -9.38379 16.107
-11.9115 -9.25221 16.0069
-11.6847 -9.17675 15.9616
-11.4307 -9.19962 16.0123
-11.1552 -9.26261 16.1033
-10.9226 -9.20829 16.0786
-10.6733 -9.2102 16.1228
-10.4348 -9.17695 16.1187
-10.1983 -9.13661 16.1076
-9.98418 -9.01882 16.0071
-9.73297 -9.02783 16.0582
-9.50223 -8.96641 16.0266
-9.26569 -8.92607 16.0156
-9.03886 -8.85068 15.9704
-8.83055 -8.71182 15.8493
-8.61341 -8.60131 15.7698
-8.37881 -8.55394 15.752
-8.16553 -8.42931 15.6587
-7.94257 -8.33987 15.5998
-7.71683 -8.26422 15.5404
-7.51132 -8.11157 15.4198
-7.29997 -7.97991 15.3197
-7.10341 -7.83606 15.1926
-6.91922 -7.60614 14.9966
-6.73031 -7.39711 14.8071
-6.54613 -7.1672 14.6111
-6.35723 -6.95817 14.4216
-6.15171 -6.80544 14.3009
-5.92485 -6.72998 14.2556
-5.69414 -6.66863 14.2241
-5.48003 -6.55085 14.1236
-5.26676 -6.42629 14.0304
-5.06512 -6.25951 13.8961
-4.86458 -6.09263 13.7477
-4.74162 -5.64486 13.3252
-4.62446 -5.17601 12.8822
-4.3821 -5.15674 12.8917
-4.14362 -5.12343 12.8876
-3.89738 -5.11821 12.9108
-3.64727 -5.12702 12.9478
-3.40103 -5.1218 12.971
-3.15472 -5.07949 12.9593
-2.91042 -5.06724 12.9757
-2.66889 -5.04113 12.9925
-2.40714 -5.09208 13.0705
-2.17642 -5.03069 13.0389
-1.93794 -4.99737 13.0348
-1.70333 -4.95001 13.0169
-1.44538 -4.94983 13.0463
-1.18557 -4.99376 13.1175
-0.94515 -4.96747 13.1202
-0.688109 -4.99753 13.1918
-0.479826 -4.85872 13.0707
-0.237464 -4.83944 13.0803
-0.00674609 -4.77805 13.0487
0.227861 -4.73069 13.0309
0.492733 -4.75176 13.0949
0.738971 -4.74654 13.1181
0.981333 -4.72726 13.1277
1.21593 -4.67991 13.1098
1.46411 -4.68171 13.1399
1.68708 -4.59222 13.0809
1.90617 -4.48869 13.0083
2.1272 -4.39218 12.9424
2.34324 -4.28145 12.8488
2.61006 -4.30954 12.9197
2.84854 -4.27622 12.9155
3.09284 -4.26398 12.9319
3.33132 -4.23066 12.9278
3.54459 -4.10607 12.8345
3.77227 -4.03747 12.782
4.01379 -4.01136 12.7988
4.25809 -3.99911 12.8152
4.48972 -3.90747 12.7414
4.72821 -3.87416 12.7373
4.95699 -3.80574 12.6988
5.18578 -3.73732 12.6604
5.42039 -3.68996 12.6426
5.65692 -3.64962 12.6316
5.88765 -3.58822 12.6
6.11837 -3.52683 12.5684
6.37153 -3.54285 12.6263
6.62367 -3.5216 12.6351
6.84553 -3.43194 12.5621
7.05686 -3.30032 12.462
7.27402 -3.18976 12.3825
7.50473 -3.12837 12.3509
7.72965 -3.04591 12.2988
7.9817 -3.06174 12.3426
8.20277 -2.92815 12.2418
8.43745 -2.8808 12.2239
8.68556 -2.88259 12.254
8.90276 -2.77204 12.1745
9.11878 -2.66131 12.0809
9.35445 -2.61413 12.0771
9.60082 -2.57183 12.0654
9.81684 -2.46109 11.9717
10.0398 -2.37161 11.9128
10.2802 -2.34531 11.9155
10.4954 -2.22774 11.8291
10.734 -2.15734 11.7899
10.9725 -2.12403 11.7858
11.2226 -2.13285 11.8227
11.4747 -2.14869 11.8665
11.6918 -2.03814 11.787
11.907 -1.92057 11.7006
12.1377 -1.85917 11.6691
12.382 -1.84692 11.6855
12.6303 -1.81163 11.6806
12.8668 -1.7713 11.6696
13.1015 -1.72395 11.6517
13.3225 -1.62743 11.5859
13.5706 -1.62923 11.616
13.7859 -1.51166 11.5296
14.0322 -1.46935 11.5179
14.2745 -1.45008 11.5274
14.5013 -1.37463 11.4821
14.7205 -1.2711 11.4095
14.9706 -1.27992 11.4464
15.1848 -1.12509 11.311
15.4019 -1.01453 11.2314
15.6385 -0.9742 11.2204
15.8692 -0.9128 11.1889
16.0941 -0.830334 11.1367
16.3327 -0.759946 11.0976
16.5498 -0.649389 11.0181
16.767 -0.538838 10.9386
17.0036 -0.461422 10.8925
17.2002 -0.280473 10.7304
17.4368 -0.24014 10.7194
17.654 -0.0925053 10.6049
17.9022 -0.0943026 10.635
18.129 -0.0188574 10.5897
18.352 0.0706299 10.5308
18.5662 0.225465 10.3953
18.7911 0.307932 10.3432
19.0121 0.404439 10.2774
19.2545 0.46079 10.2519
19.4814 0.536231 10.2066
19.6869 0.688914 10.086
19.9127 0.801621 9.99165
20.1357 0.891107 9.93268
20.3704 0.93846 9.91484
20.6128 0.994811 9.88938
20.8474 1.04217 9.87151
21.0548 1.18783 9.75774
21.2992 1.20007 9.77414
21.5241 1.31962 9.68702
21.7665 1.33889 9.69657
22.0205 1.31603 9.74721
22.259 1.34934 9.74306
22.48 1.44585 9.67725
22.7262 1.45108 9.70048
22.9686 1.47035 9.71003
23.2148 1.47557 9.73328
23.4533 1.54597 9.69411
23.7026 1.50691 9.7733
23.9528 1.53517 9.77526
24.199 1.50331 9.83351
24.4626 1.44535 9.91841
24.7371 1.35209 10.0517
24.989 1.29917 10.1304
25.2597 1.21995 10.25
25.5485 1.03362 10.459
25.8132 0.938387 10.593
26.0556 0.957651 10.6025
26.3436 0.815246 10.7837
26.6034 0.734234 10.8899
26.9301 0.414307 11.2432
27.1987 0.30503 11.3909
27.4964 0.0904286 11.6413
27.7678 -0.0327097 11.7886
28.0305 -0.120919 11.9158
28.3116 -0.242083 12.0623
28.5977 -0.414556 12.2717
28.8652 -0.523653 12.4053
29.126 -0.604841 12.5256
29.3762 -0.613659 12.5626
29.6359 -0.694668 12.6688
29.8949 -0.731754 12.7472
30.1449 -0.777654 12.8192
30.4067 -0.828601 12.8972
30.6637 -0.895752 13.0038
30.904 -0.869452 13.0065
31.1735 -0.948488 13.112
31.412 -0.915177 13.1078
31.6427 -0.89086 13.1112
31.89 -0.885817 13.1486
32.1235 -0.83828 13.1166
32.3523 -0.769855 13.0782
32.6093 -0.79992 13.1498
32.8439 -0.752563 13.1319
33.0766 -0.698184 13.1072
33.3267 -0.707003 13.1442
33.5555 -0.638583 13.1058
33.7823 -0.563138 13.0605
34.0286 -0.557915 13.0838
34.269 -0.531624 13.0865
34.5248 -0.598587 13.1789
34.7769 -0.614426 13.2227
35.0183 -0.625397 13.2745
35.2781 -0.706405 13.3807
35.5243 -0.701183 13.404
35.7608 -0.660846 13.393
36.0217 -0.704952 13.4783
36.2757 -0.764899 13.5639
36.5084 -0.71052 13.5392
36.7546 -0.705292 13.5625
36.9871 -0.687996 13.5727
37.216 -0.619576 13.5343
37.4545 -0.586265 13.5302
37.7065 -0.602104 13.574
37.9352 -0.533679 13.5356
38.1525 -0.42313 13.456
38.3889 -0.382794 13.445
38.6198 -0.284313 13.3785
38.8563 -0.243976 13.3675
39.0754 -0.140448 13.2948
39.2964 -0.0439404 13.229
39.531 0.00341718 13.2111
39.7549 0.123143 13.1099
39.9759 0.219655 13.0441
40.1971 0.353238 12.9433
40.4084 0.484856 12.8432
40.6284 0.618634 12.7283
40.8436 0.7362 12.6419
41.0492 0.925963 12.4863
41.2672 1.06676 12.3645
41.469 1.27056 12.1952
41.694 1.39012 12.1081
41.9062 1.55197 11.9658
42.1176 1.68359 11.8657
42.3309 1.84526 11.7375
42.5354 2.03521 11.5678
42.7507 2.18986 11.4464
42.9494 2.43796 11.2211
43.1268 2.76329 10.9205
43.2947 3.1608 10.5506
45.6629 8.57509 5.48931
45.4012 8.62599 5.4113
45.9432 8.38656 5.71316
46.2291 8.21412 5.92248
46.519 7.9534 6.2156
46.7825 7.8584 6.33545
47.0472 7.76315 6.46946
47.3013 7.74027 6.52013
47.5678 7.638 6.66099
47.8103 7.65727 6.67055
48.0623 7.64149 6.71428
48.2988 7.68177 6.70333
48.5257 7.75723 6.65805
48.7604 7.84167 6.60518
48.9775 7.95226 6.52563
49.218 8.01563 6.49332
49.4477 8.11423 6.41273
49.661 8.23886 6.31947
49.8802 8.41658 6.17678
50.1071 8.49197 6.13157
50.3097 8.72606 5.91995
50.527 8.91073 5.77049
-39.1294 -10.6537 13.6909
-39.3221 -10.8117 13.8317
-38.9064 -10.5643 13.6319
-38.6816 -10.4818 13.5798
-38.3429 -10.7326 13.8692
-38.0124 -10.8243 14.3385
-38.0586 -10.8239 14.0017
-37.0477 -11.525 14.8069
-37.4058 -11.2411 14.484
-36.7362 -11.7146 15.0353
-36.4724 -11.7355 15.0852
-36.2017 -11.7776 15.1698
-35.9128 -11.8898 15.3087
-35.5955 -12.1004 15.5577
-35.321 -12.1567 15.656
-35.105 -12.0459 15.5623
-34.8342 -12.0881 15.6469
-34.5821 -12.1038 15.6907
-34.1783 -12.5495 16.1852
-33.832 -12.8284 16.502
-33.5605 -12.8774 16.5793
-33.2646 -13.0108 16.7529
-32.9834 -13.0949 16.8645
-32.7507 -13.0405 16.8397
-32.4792 -13.0895 16.9171
-32.2183 -13.1335 17.0023
-31.9739 -13.1213 17.0187
-31.7646 -12.9827 16.9118
-31.495 -13.0247 16.9823
-31.2001 -13.1579 17.1418
-30.9694 -13.0965 17.1103
-30.7892 -12.8896 16.9356
-30.5526 -12.8493 16.9245
-30.2968 -12.8791 16.9821
-30.0757 -12.7826 16.9162
-29.8372 -12.7493 16.9121
-29.6356 -12.5826 16.7777
-29.4293 -12.4739 16.6849
-29.2141 -12.3563 16.5985
-28.9718 -12.337 16.608
-28.7469 -12.2545 16.5559
-28.5336 -12.1299 16.4627
-28.2816 -12.1458 16.5065
-28.0469 -12.0984 16.4887
-27.7773 -12.1404 16.5591
-27.5349 -12.1211 16.5687
-27.2837 -12.1301 16.6197
-27.0394 -12.1178 16.6361
-26.8203 -12.0143 16.5634
-26.6024 -11.9106 16.4766
-26.3852 -11.8001 16.3972
-26.1525 -11.7457 16.3724
-25.9801 -11.5107 16.1703
-25.7563 -11.428 16.1041
-25.5644 -11.2633 15.9705
-25.2335 -11.4861 16.2325
-24.9679 -11.551 16.3242
-24.7527 -11.4335 16.2379
-24.5374 -11.3159 16.1515
-24.3203 -11.2053 16.072
-24.0683 -11.2212 16.1158
-23.7491 -11.4388 16.3716
-23.4183 -11.6987 16.6685
-23.1391 -11.7757 16.7732
-22.8392 -11.9231 16.9605
-22.5833 -11.953 17.0181
-22.3371 -11.9478 17.0413
-22.1064 -11.8864 17.0097
-21.8163 -11.9988 17.1628
-21.5622 -12.0216 17.2134
-21.3258 -11.9813 17.2025
-21.0776 -11.9831 17.2326
-20.8449 -11.9288 17.2079
-20.5869 -11.9285 17.2372
-20.397 -11.7568 17.0967
-20.1857 -11.6252 16.9967
-19.9569 -11.5567 16.9583
-19.7467 -11.425 16.8441
-19.5354 -11.3304 16.779
-19.295 -11.3041 16.7817
-19.0604 -11.2567 16.7638
-18.8297 -11.1954 16.7323
-18.597 -11.141 16.7076
-18.4032 -10.9462 16.5459
-18.1705 -10.8918 16.5212
-17.9048 -10.9568 16.6129
-17.643 -10.9706 16.656
-17.3832 -11.0146 16.7272
-17.1436 -10.9814 16.7371
-16.9121 -10.9269 16.6983
-16.7396 -10.6919 16.4962
-16.4739 -10.7198 16.553
-16.1703 -10.9184 16.789
-15.8706 -11.0659 16.9763
-15.6049 -11.1309 17.0681
-15.3722 -11.0765 17.0433
-15.195 -10.8253 16.8127
-15.0283 -10.5693 16.59
-14.82 -10.4305 16.4691
-14.5854 -10.3831 16.4512
-14.3109 -10.4764 16.5845
-14.0628 -10.4781 16.6145
-13.8592 -10.3184 16.487
-13.7199 -9.97079 16.1472
-13.5183 -9.80409 16.0129
-13.3089 -9.66541 15.9059
-13.0724 -9.62507 15.8949
-12.8184 -9.64794 15.9455
-12.5857 -9.59355 15.9208
-12.3666 -9.49006 15.8482
-12.101 -9.55501 15.9399
-11.8411 -9.56187 15.9761
-11.6181 -9.47236 15.9171
-11.3816 -9.43202 15.9061
-11.1548 -9.35663 15.8609
-10.9027 -9.37248 15.9047
-10.6662 -9.33213 15.8937
-10.4238 -9.31286 15.9032
-10.1706 -9.32889 15.9611
-9.93797 -9.2745 15.9364
-9.69755 -9.24821 15.9391
-9.46101 -9.20786 15.9281
-9.23609 -9.12538 15.876
-9.00149 -9.07801 15.8581
-8.78158 -8.98136 15.7782
-8.56248 -8.8778 15.7055
-8.33952 -8.78837 15.6466
-8.1243 -8.67076 15.5602
-7.91685 -8.52513 15.4464
-7.7008 -8.41436 15.3528
-7.47589 -8.33188 15.3007
-7.27619 -8.15815 15.1595
-7.10095 -7.93703 14.957
-6.90319 -7.75628 14.809
-6.73368 -7.47701 14.5509
-6.5409 -7.28203 14.3751
-6.34508 -7.09426 14.2203
-6.13762 -6.94856 14.1065
-5.89526 -6.92929 14.116
-5.66843 -6.8539 14.0708
-5.46012 -6.71503 13.9497
-5.24492 -6.5975 13.8634
-5.02001 -6.51501 13.8113
-4.83499 -6.29194 13.608
-4.74304 -5.7318 13.0759
-4.5871 -5.4034 12.7699
-4.36801 -5.29987 12.6973
-4.14421 -5.21723 12.6311
-3.88135 -5.26836 12.7232
-3.63706 -5.25611 12.7396
-3.41021 -5.18066 12.6943
-3.15808 -5.15942 12.7031
-2.89245 -5.22441 12.7949
-2.65204 -5.19812 12.7976
-2.38918 -5.24925 12.8897
-2.14294 -5.24402 12.913
-1.90252 -5.21773 12.9157
-1.6718 -5.15633 12.8841
-1.43324 -5.08594 12.845
-1.19669 -5.04561 12.834
-0.93882 -5.08251 12.8983
-0.704223 -5.03515 12.8804
-0.459923 -5.0229 12.8968
-0.213685 -5.01768 12.9201
0.0189728 -4.9633 12.8954
0.285709 -5.02847 13.0012
0.526206 -4.9651 12.9689
0.756935 -4.9037 12.9374
0.971035 -4.78595 12.8369
1.21838 -4.7809 12.8742
1.46074 -4.76163 12.8838
1.72249 -4.81258 12.9618
1.96291 -4.78629 12.9645
2.19363 -4.72489 12.933
2.42243 -4.65647 12.8945
2.65129 -4.55097 12.8211
2.89559 -4.53872 12.8375
3.13019 -4.49137 12.8197
3.36091 -4.42997 12.7881
3.58388 -4.34048 12.7291
3.8038 -4.24379 12.6492
4.03646 -4.18941 12.6245
4.26719 -4.12801 12.593
4.50963 -4.07166 12.5675
4.76085 -4.08065 12.6185
4.96526 -3.92779 12.4838
5.19599 -3.86639 12.4523
5.44029 -3.85415 12.4687
5.68458 -3.8419 12.485
5.90174 -3.73135 12.4055
6.13827 -3.69102 12.3945
6.38839 -3.69983 12.4315
6.61338 -3.58028 12.3443
6.83441 -3.48378 12.2785
7.06513 -3.42238 12.247
7.29586 -3.36098 12.2154
7.51882 -3.27149 12.1564
7.75537 -3.23116 12.1454
7.97731 -3.10441 12.0374
8.21189 -3.05705 12.0195
8.44263 -2.99565 11.9879
8.66368 -2.89914 11.9221
8.90219 -2.86583 11.918
9.13283 -2.80443 11.8864
9.38112 -2.76914 11.8815
9.62933 -2.77094 11.9116
9.85229 -2.68146 11.8526
10.0519 -2.50771 11.7115
10.2924 -2.48141 11.7141
10.525 -2.42703 11.6894
10.7577 -2.37266 11.6647
10.971 -2.21098 11.5365
11.2154 -2.19873 11.5529
11.4713 -2.22862 11.6104
11.6826 -2.097 11.5103
11.9153 -2.04263 11.4856
12.1519 -2.00229 11.4746
12.4019 -2.01111 11.5116
12.6464 -1.96178 11.493
12.877 -1.90038 11.4614
13.1155 -1.86706 11.4572
13.3463 -1.80567 11.4257
13.5925 -1.80044 11.4489
13.829 -1.7601 11.4379
14.0483 -1.6195 11.3303
14.2731 -1.53703 11.2781
14.4989 -1.4614 11.2188
14.7024 -1.3017 11.0913
14.9526 -1.27344 11.0932
15.1775 -1.19097 11.0411
15.3986 -1.09447 10.9753
15.6215 -1.00498 10.9163
15.8717 -1.01379 10.9533
16.1103 -0.943406 10.9141
16.3371 -0.867955 10.8689
16.5716 -0.820601 10.851
16.7838 -0.695824 10.7437
17.0224 -0.625429 10.7045
17.2357 -0.500834 10.6113
17.4664 -0.439441 10.5798
17.6874 -0.342925 10.5139
17.9318 -0.2936 10.4953
18.1529 -0.197093 10.4295
18.3661 -0.0724972 10.3363
18.5919 0.0402099 10.2419
18.8362 0.0524588 10.2583
19.034 0.233224 10.1103
19.2609 0.345752 10.03
19.4917 0.40715 9.99847
19.7146 0.496638 9.93951
19.9326 0.637432 9.81774
20.1518 0.74096 9.74507
20.3941 0.76023 9.75462
20.6326 0.793541 9.75046
20.8595 0.906069 9.67019
21.098 0.939379 9.66604
21.3248 1.01482 9.62077
21.5673 1.07117 9.59532
21.7825 1.18875 9.50894
22.0249 1.20802 9.5185
22.2749 1.1992 9.55543
22.4921 1.30975 9.47592
22.748 1.27987 9.53341
22.9865 1.31318 9.52926
23.2271 1.37655 9.49696
23.4829 1.34667 9.55445
23.7244 1.3357 9.60624
23.9784 1.31284 9.6569
24.2459 1.24082 9.7555
24.4864 1.26712 9.75819
24.7628 1.16683 9.8983
25.0206 1.09285 9.99765
25.2727 1.07701 10.0415
25.5588 0.904533 10.2508
25.8263 0.832525 10.3494
26.0755 0.793463 10.4286
26.3624 0.651232 10.5957
26.6214 0.577066 10.7092
26.9345 0.306294 11.0144
27.2206 0.133821 11.2238
27.5113 -0.0595342 11.4396
27.7761 -0.154769 11.5736
28.0455 -0.270886 11.7141
28.3373 -0.464421 11.944
28.6098 -0.550656 12.0704
28.8716 -0.638691 12.1835
29.1518 -0.790097 12.3723
29.4155 -0.848065 12.4572
29.6802 -0.9433 12.5912
29.9282 -0.982174 12.6563
30.1764 -0.983972 12.6864
30.4451 -1.05616 12.7991
30.6933 -1.09505 12.8642
30.9491 -1.12492 12.9217
31.1993 -1.13374 12.9586
31.4318 -1.11645 12.9689
31.6683 -1.07611 12.9579
31.9011 -1.02174 12.9332
32.1434 -1.00247 12.9427
32.3869 -0.983378 12.9664
32.6107 -0.900733 12.9001
32.8754 -0.958881 12.9991
33.112 -0.918549 12.9881
33.3504 -0.92232 13.019
33.5947 -0.91007 13.0354
33.8177 -0.820584 12.9764
34.062 -0.808335 12.9928
34.3102 -0.810132 13.0229
34.5652 -0.833172 13.0876
34.8036 -0.836943 13.1185
35.0596 -0.866828 13.176
35.298 -0.833512 13.1718
35.5617 -0.928567 13.2917
35.8051 -0.946559 13.3504
36.0474 -0.927289 13.3599
36.3053 -0.964196 13.4243
36.5379 -0.946899 13.4346
36.7763 -0.913583 13.4304
37.009 -0.859205 13.4057
37.2572 -0.861003 13.4358
37.4841 -0.785562 13.3905
37.7303 -0.780334 13.4138
37.9669 -0.740003 13.4028
38.1995 -0.685624 13.378
38.4322 -0.631246 13.3533
38.659 -0.555801 13.3081
38.88 -0.459293 13.2422
39.1089 -0.353792 13.1688
39.3416 -0.299414 13.1441
39.5625 -0.202901 13.0783
39.7778 -0.0853314 12.9919
40.0133 -0.00773537 12.9318
40.2247 0.160968 12.7968
40.4515 0.236411 12.7515
40.6571 0.426174 12.5959
40.879 0.515838 12.5228
41.0904 0.684541 12.3877
41.3 0.860259 12.2458
41.5082 0.99908 12.1248
41.7351 1.11161 12.0445
41.9408 1.30137 11.8889
42.1491 1.47727 11.7329
42.3721 1.60384 11.6389
42.5844 1.76569 11.4966
42.7668 2.03972 11.2588
42.9636 2.29483 11.0267
43.141 2.62016 10.726
43.3397 2.86826 10.5007
43.4741 3.47912 10.2568
43.5056 3.2728 10.124
45.9514 8.3016 5.46312
45.6809 8.41793 5.30854
46.2228 8.14135 5.64546
46.5242 7.87564 5.94461
46.8063 7.68017 6.17523
47.0692 7.62901 6.26741
47.3269 7.55502 6.36676
47.5692 7.53721 6.4113
47.8282 7.50011 6.48977
48.0744 7.46825 6.54802
48.3227 7.50353 6.54313
48.5591 7.50679 6.5671
48.7937 7.59124 6.51423
49.0265 7.68271 6.45451
49.2475 7.77924 6.38867
49.4733 7.8919 6.29436
49.6925 8.03253 6.18667
49.9118 8.17317 6.07899
50.1356 8.29284 5.97782
50.3509 8.44753 5.85642
50.5701 8.62525 5.71373
50.7412 9.06559 5.63499
50.7475 8.95058 5.4131
-38.6247 -10.7423 13.501
-38.8361 -10.8739 13.6011
-38.3668 -10.7792 13.5654
-38.102 -10.8003 13.6294
-37.7482 -10.9762 14.181
-37.7808 -10.9879 13.8571
-37.5461 -10.9406 13.8393
-36.545 -11.6436 14.6452
-36.8767 -11.4141 14.3905
-36.1702 -11.9839 15.037
-35.9336 -11.9436 15.0259
-35.6543 -12.0206 15.1306
-35.3604 -12.1471 15.2975
-35.0734 -12.2522 15.4296
-34.8407 -12.1978 15.4048
-34.5905 -12.1696 15.4068
-34.389 -12.0399 15.3075
-34.0445 -12.3118 15.6173
-33.6466 -12.7363 16.0913
-33.4061 -12.71 16.094
-33.0772 -12.9258 16.3491
-32.7843 -13.052 16.5018
-32.5214 -13.0661 16.5589
-32.248 -13.1591 16.678
-31.9978 -13.1308 16.68
-31.8001 -12.9872 16.567
-31.5985 -12.8205 16.4327
-31.3368 -12.8714 16.5107
-31.0497 -12.9766 16.6429
-30.7946 -12.9996 16.7076
-30.5483 -12.9572 16.6958
-30.302 -12.952 16.7191
-30.0636 -12.9187 16.7149
-29.8464 -12.8082 16.6354
-29.608 -12.7749 16.6312
-29.4404 -12.5257 16.4013
-29.2174 -12.4362 16.3424
-28.9848 -12.3818 16.3177
-28.7774 -12.2732 16.2389
-28.5653 -12.1485 16.1316
-28.3229 -12.1292 16.1411
-28.0776 -12.1171 16.1716
-27.8059 -12.1661 16.2489
-27.5791 -12.0907 16.2037
-27.2824 -12.2309 16.37
-27.0195 -12.282 16.4621
-26.8093 -12.1502 16.348
-26.5698 -12.1171 16.3579
-26.3556 -11.9994 16.2575
-26.2309 -11.6328 15.9119
-25.9788 -11.6115 15.9206
-25.75 -11.5431 15.8823
-25.5775 -11.3081 15.6802
-25.3235 -11.331 15.7308
-24.9655 -11.652 16.0887
-24.7619 -11.4923 15.9612
-24.5234 -11.459 15.957
-24.2849 -11.4257 15.9529
-24.0368 -11.4275 15.9829
-23.7021 -11.7013 16.2936
-23.3751 -11.9101 16.5419
-23.1114 -11.968 16.6267
-22.831 -12.0453 16.7456
-22.5673 -12.1032 16.8304
-22.29 -12.1733 16.9283
-22.0612 -12.1048 16.8899
-21.8119 -12.1068 16.9341
-21.5735 -12.0735 16.9299
-21.3233 -12.0823 16.9669
-21.0732 -12.0911 17.0038
-20.8425 -12.0297 16.9723
-20.5729 -12.0717 17.0428
-20.3868 -11.8859 16.8886
-20.1736 -11.7613 16.7954
-19.939 -11.7139 16.7775
-19.7404 -11.5771 16.6572
-19.533 -11.4314 16.5435
-19.3101 -11.3419 16.4845
-19.0502 -11.3859 16.5557
-18.7884 -11.3997 16.5987
-18.5984 -11.2279 16.4583
-18.394 -11.0751 16.3236
-18.1544 -11.0419 16.3335
-17.8986 -11.0718 16.391
-17.6445 -11.0947 16.4417
-17.3788 -11.1226 16.4984
-17.1121 -11.1878 16.6043
-16.9524 -10.9105 16.347
-16.748 -10.7576 16.2123
-16.4676 -10.8348 16.3311
-16.1698 -11.0124 16.5465
-15.8944 -11.0754 16.6376
-15.616 -11.1827 16.7845
-15.3833 -11.1283 16.7598
-15.2217 -10.8581 16.5094
-15.0212 -10.6912 16.361
-14.8253 -10.5033 16.206
-14.5888 -10.463 16.195
-14.3677 -10.3665 16.1293
-14.1118 -10.3964 16.1868
-13.9404 -10.1613 15.9706
-13.7602 -9.91731 15.7609
-13.4907 -9.9963 15.8663
-13.2638 -9.92091 15.8211
-13.0408 -9.8314 15.7621
-12.812 -9.76296 15.7237
-12.5697 -9.74369 15.7332
-12.3099 -9.78763 15.8044
-12.0636 -9.74533 15.7927
-11.8328 -9.68392 15.7611
-11.6002 -9.62952 15.7364
-11.3597 -9.60323 15.7391
-11.1116 -9.60503 15.7692
-10.875 -9.56469 15.7581
-10.6355 -9.53162 15.7681
-10.4058 -9.47003 15.7225
-10.1527 -9.48606 15.7804
-9.92388 -9.41762 15.7419
-9.68928 -9.37025 15.7241
-9.46049 -9.30181 15.6856
-9.23282 -9.23326 15.6332
-8.99324 -9.20013 15.6431
-8.75475 -9.16681 15.639
-8.53677 -9.06306 15.5522
-8.30991 -8.9876 15.5069
-8.09083 -8.88412 15.4343
-7.87755 -8.75948 15.341
-7.65265 -8.67707 15.2889
-7.45987 -8.48202 15.113
-7.2466 -8.35746 15.0199
-7.07717 -8.11527 14.7968
-6.88717 -7.90642 14.6214
-6.71959 -7.62013 14.3565
-6.53651 -7.39003 14.1464
-6.34456 -7.18821 13.9778
-6.12353 -7.09167 13.912
-5.91332 -6.95991 13.7978
-5.66902 -6.94766 13.8142
-5.44216 -6.8722 13.769
-5.21531 -6.79674 13.7237
-5.00592 -6.65813 13.6168
-4.81702 -6.4491 13.4273
-4.71926 -5.91004 12.9157
-4.57495 -5.5395 12.5686
-4.36667 -5.40068 12.4476
-4.12237 -5.38843 12.464
-3.87115 -5.39743 12.515
-3.60941 -5.44838 12.5931
-3.37868 -5.38698 12.5615
-3.13236 -5.34468 12.5498
-2.87643 -5.37456 12.6073
-2.65346 -5.28507 12.5483
-2.40335 -5.29389 12.5853
-2.17068 -5.23951 12.5606
-1.91863 -5.25535 12.6044
-1.68791 -5.19395 12.5728
-1.43771 -5.16569 12.5747
-1.19536 -5.14642 12.5843
-0.948008 -5.14137 12.6216
-0.694015 -5.16423 12.6723
-0.432266 -5.21518 12.7503
-0.205425 -5.13974 12.7051
0.0505081 -5.16962 12.7626
0.281237 -5.10822 12.731
0.535305 -5.094 12.7467
0.75828 -5.00451 12.6877
0.987059 -4.93609 12.6493
1.21585 -4.86767 12.6109
1.45627 -4.84138 12.6136
1.70638 -4.8502 12.6505
1.94292 -4.80986 12.6395
2.19221 -4.81184 12.6837
2.42875 -4.7715 12.6727
2.67313 -4.72218 12.6541
2.88723 -4.60442 12.5536
3.11602 -4.536 12.5152
3.3642 -4.53779 12.5453
3.59298 -4.46938 12.5069
3.83146 -4.43606 12.5027
4.0583 -4.36062 12.4575
4.28322 -4.27816 12.4053
4.53915 -4.30804 12.4628
4.7525 -4.14636 12.3346
4.99486 -4.12709 12.3442
5.22365 -4.05867 12.3057
5.44661 -3.96918 12.2468
5.67152 -3.88672 12.1947
5.90031 -3.8183 12.1563
6.14266 -3.79903 12.1658
6.38122 -3.72863 12.1266
6.60226 -3.63212 12.0608
6.83492 -3.57775 12.0361
7.08115 -3.57252 12.0594
7.30025 -3.46899 11.9867
7.52404 -3.38635 11.9205
7.75291 -3.28084 11.8471
7.99139 -3.24753 11.8429
8.21826 -3.17208 11.7976
8.45668 -3.13877 11.7935
8.66803 -3.00716 11.6934
8.90069 -2.95277 11.6687
9.13536 -2.90543 11.6508
9.36225 -2.7929 11.5706
9.61429 -2.80874 11.6144
9.84695 -2.75436 11.5897
10.0796 -2.69998 11.565
10.3278 -2.70178 11.5951
10.5508 -2.61229 11.5361
10.7777 -2.49977 11.4558
11.0336 -2.52965 11.5133
11.2644 -2.46825 11.4818
11.468 -2.30855 11.3543
11.7064 -2.27523 11.3501
11.9411 -2.22788 11.3323
12.1698 -2.15945 11.2938
12.4142 -2.11013 11.2753
12.6778 -2.20518 11.3952
12.8989 -2.07159 11.2943
13.1219 -1.98211 11.2354
13.3506 -1.91368 11.1969
13.5841 -1.86614 11.165
13.8207 -1.82581 11.154
14.072 -1.79772 11.17
14.2977 -1.7221 11.1107
14.5149 -1.61155 11.0312
14.7436 -1.54313 10.9927
14.9706 -1.4306 10.9125
15.2111 -1.40432 10.9152
15.4301 -1.30078 10.8425
15.6744 -1.28853 10.8589
15.8896 -1.17097 10.7725
16.1165 -1.05844 10.6923
16.3511 -1.01108 10.6744
16.5838 -0.956699 10.6497
16.796 -0.794845 10.5074
17.0268 -0.733445 10.4758
17.2575 -0.672045 10.4442
17.4746 -0.561489 10.3647
17.6888 -0.406656 10.2293
17.9284 -0.373524 10.2392
18.1561 -0.304925 10.1867
18.3829 -0.22948 10.1414
18.5925 -0.0537614 9.99951
18.8173 0.0287045 9.94739
19.0578 0.0549954 9.95008
19.2808 0.181564 9.85612
19.4968 0.292297 9.7625
19.7277 0.390777 9.69594
19.9681 0.417068 9.69864
20.1911 0.506555 9.63967
20.4103 0.647165 9.53201
20.6351 0.72963 9.47989
20.8619 0.805076 9.43462
21.114 0.789235 9.47842
21.3391 0.908781 9.39131
21.5853 0.914007 9.41455
21.8198 0.961369 9.39668
22.039 1.0649 9.32402
22.2813 1.08416 9.33357
22.511 1.18282 9.25292
22.7456 1.23018 9.23505
22.9891 1.24927 9.25869
23.247 1.21236 9.32304
23.497 1.16646 9.39499
23.7452 1.20176 9.39008
23.9914 1.16989 9.44833
24.2388 1.17494 9.48568
24.5005 1.12399 9.56373
24.7719 1.03793 9.67604
25.0366 0.942704 9.81003
25.281 0.954947 9.82644
25.5504 0.875917 9.93188
25.8423 0.682375 10.1618
26.1012 0.608208 10.2753
26.3649 0.550239 10.3602
26.6276 0.462033 10.4873
26.9223 0.254632 10.7168
27.2085 0.119241 10.8912
27.5021 -0.118397 11.1629
27.7823 -0.269802 11.3517
28.0711 -0.456137 11.5607
28.3417 -0.535352 11.6803
28.6221 -0.686763 11.8691
28.8701 -0.725636 11.9342
29.162 -0.919176 12.1641
29.4276 -0.984165 12.2558
29.6981 -1.10046 12.4104
29.9675 -1.21658 12.5509
30.2022 -1.16923 12.533
30.4708 -1.24141 12.6457
30.7111 -1.25221 12.6834
30.9613 -1.26102 12.7203
31.2095 -1.26283 12.7504
31.4479 -1.26659 12.7813
31.696 -1.26838 12.8114
31.9337 -1.22824 12.8145
32.1683 -1.18088 12.7966
32.4125 -1.16863 12.813
32.6511 -1.13532 12.8088
32.8934 -1.11605 12.8184
33.1397 -1.11082 12.8416
33.3664 -1.07246 12.8314
33.6127 -1.06724 12.8546
33.8531 -1.04095 12.8573
34.1129 -1.08487 12.9285
34.3486 -1.0377 12.9247
34.5793 -1.01338 12.9282
34.8332 -1.03624 12.9788
35.0871 -1.09618 13.0645
35.345 -1.13309 13.1288
35.5905 -1.12102 13.1593
35.8307 -1.13181 13.197
36.0885 -1.2058 13.2964
36.3309 -1.18653 13.3059
36.5713 -1.16024 13.3086
36.8137 -1.14097 13.3181
37.0483 -1.09361 13.3003
37.2829 -1.04626 13.2824
37.5117 -0.977833 13.244
37.7443 -0.923455 13.2193
37.979 -0.876103 13.2014
38.2174 -0.842786 13.1973
38.454 -0.802455 13.1863
38.6936 -0.769324 13.1962
38.9155 -0.679657 13.1231
39.1423 -0.604212 13.0779
39.3594 -0.493658 12.9984
39.5805 -0.360068 12.8975
39.8016 -0.263561 12.8317
40.037 -0.185962 12.7716
40.2484 -0.0543446 12.6715
40.4734 0.0652002 12.5844
40.6809 0.210856 12.4707
40.897 0.358672 12.342
41.1162 0.499286 12.2344
41.3314 0.616858 12.148
41.5319 0.820853 11.9646
41.7647 0.912308 11.9049
41.9742 1.08803 11.763
42.1902 1.19876 11.6693
42.3881 1.41661 11.4863
42.6003 1.57847 11.344
42.7905 1.86149 11.0986
42.997 2.08149 10.9007
43.2007 2.27828 10.7382
43.3703 2.6317 10.4102
43.5467 2.99429 10.0604
45.9742 8.12354 5.28883
45.7086 8.22564 5.16204
46.2408 8.02127 5.42969
46.5171 7.84687 5.63976
46.8011 7.64429 5.87731
47.0899 7.45798 6.08625
47.343 7.40488 6.17915
47.5891 7.37302 6.23739
47.8528 7.31503 6.32232
48.0981 7.29002 6.3878
48.3366 7.32333 6.38364
48.5752 7.39373 6.34449
48.8117 7.43407 6.33347
49.0453 7.5187 6.2665
49.2586 7.64333 6.17325
49.4875 7.74878 6.09989
49.7144 7.86132 6.01961
49.947 7.91571 5.99488
50.1612 8.07051 5.85945
50.3862 8.22715 5.73733
50.588 8.431 5.56796
50.7849 8.72317 5.30086
-38.3547 -10.9153 13.3641
-38.5339 -11.1223 13.5528
-38.1045 -10.887 13.366
-37.8737 -10.8256 13.3345
-37.6198 -10.8485 13.3851
-37.2746 -10.9895 13.9165
-37.3716 -10.8132 13.3802
-34.4177 -12.0656 14.9972
-34.7097 -11.9463 14.8373
-34.1481 -12.1076 15.0677
-33.7346 -12.5883 15.5965
-33.4153 -12.7689 15.8173
-33.1516 -12.8269 15.9023
-32.8401 -12.9794 16.0956
-32.5861 -13.0023 16.1463
-32.3554 -12.9408 16.1147
-32.1286 -12.8655 16.0695
-31.8512 -12.9355 16.1673
-31.6205 -12.874 16.1358
-31.382 -12.8407 16.1316
-31.1299 -12.8566 16.1754
-30.8341 -12.99 16.349
-30.5567 -13.0601 16.4469
-30.3298 -12.9846 16.4016
-30.0669 -12.9987 16.4588
-29.8265 -12.9724 16.4615
-29.6299 -12.8285 16.3344
-29.4877 -12.488 16.0154
-29.2784 -12.3865 15.9435
-29.0088 -12.4284 16.0139
-28.7993 -12.2898 15.907
-28.5881 -12.1953 15.842
-28.334 -12.181 15.8576
-28.0703 -12.239 15.9425
-27.8054 -12.2601 16.0065
-27.5554 -12.2689 16.0435
-27.3053 -12.2777 16.0804
-27.1106 -12.0897 15.9114
-26.8817 -12.0213 15.873
-26.5761 -12.1898 16.0808
-26.3785 -12.0461 15.9678
-26.2129 -11.79 15.7311
-25.9784 -11.7426 15.7133
-25.7933 -11.5195 15.51
-25.5498 -11.5004 15.5337
-25.2997 -11.5093 15.5706
-25.003 -11.6495 15.737
-24.7664 -11.6092 15.726
-24.5338 -11.5548 15.7012
-24.267 -11.5829 15.7721
-24.0188 -11.5847 15.8022
-23.6977 -11.8093 16.0649
-23.3513 -12.0883 16.3816
-23.0953 -12.1181 16.4391
-22.8325 -12.1693 16.5313
-22.5397 -12.2955 16.6839
-22.3031 -12.2551 16.6729
-22.0685 -12.2078 16.655
-21.7989 -12.2497 16.7255
-21.5458 -12.2658 16.7834
-21.2917 -12.2886 16.8341
-21.0514 -12.2623 16.8368
-20.8109 -12.2361 16.8395
-20.5724 -12.2027 16.8353
-20.3863 -11.9798 16.6462
-20.1567 -11.9182 16.6005
-19.924 -11.8639 16.5758
-19.6972 -11.7885 16.5306
-19.5072 -11.6166 16.3901
-19.2765 -11.5553 16.3586
-19.0439 -11.5009 16.3338
-18.7957 -11.5027 16.3639
-18.5921 -11.3429 16.2364
-18.3741 -11.2393 16.1497
-18.1307 -11.2202 16.1733
-17.8709 -11.2641 16.2445
-17.6071 -11.285 16.2944
-17.355 -11.3008 16.3382
-17.1243 -11.2394 16.3066
-16.9607 -10.9762 16.0631
-16.725 -10.929 16.0593
-16.4632 -10.98 16.1374
-16.1742 -11.0922 16.2764
-15.8745 -11.2396 16.4637
-15.6321 -11.2203 16.4732
-15.4053 -11.1449 16.4279
-15.2358 -10.9027 16.2049
-15.04 -10.7149 16.05
-14.8035 -10.6746 16.039
-14.5709 -10.6202 16.0143
-14.3498 -10.5237 15.9485
-14.1552 -10.3728 15.8145
-13.9934 -10.0655 15.5291
-13.748 -10.0534 15.5595
-13.5203 -9.98478 15.507
-13.2575 -10.0359 15.5992
-13.019 -10.0026 15.595
-12.7766 -9.98334 15.6046
-12.5537 -9.89383 15.5456
-12.3035 -9.90265 15.5825
-12.0437 -9.90952 15.6188
-11.8305 -9.82197 15.5605
-11.5628 -9.85693 15.6241
-11.3097 -9.87296 15.682
-11.0712 -9.83964 15.6779
-10.8346 -9.7993 15.6669
-10.5942 -9.773 15.6695
-10.3577 -9.73266 15.6585
-10.1347 -9.64322 15.5996
-9.9001 -9.59585 15.5817
-9.65387 -9.59063 15.605
-9.41927 -9.54326 15.5871
-9.19047 -9.47482 15.5487
-8.95781 -9.42043 15.524
-8.73983 -9.31676 15.4372
-8.5188 -9.22023 15.3714
-8.29972 -9.11674 15.2988
-8.07481 -9.03426 15.2466
-7.86346 -8.9026 15.1465
-7.63663 -8.82721 15.1013
-7.44578 -8.62513 14.9186
-7.24801 -8.44438 14.7706
-7.08054 -8.19524 14.5407
-6.88 -8.02828 14.3922
-6.72989 -7.67885 14.0657
-6.52049 -7.54017 13.9588
-6.31497 -7.38752 13.8382
-6.09588 -7.28396 13.7655
-5.87402 -7.19434 13.6925
-5.63748 -7.15399 13.6814
-5.41838 -7.05043 13.6087
-5.209 -6.91183 13.5019
-4.99766 -6.78017 13.4017
-4.81845 -6.53602 13.178
-4.72567 -5.98276 12.6387
-4.58138 -5.61223 12.2916
-4.36228 -5.5087 12.2189
-4.11605 -5.50347 12.2421
-3.85624 -5.5474 12.3133
-3.60501 -5.5564 12.3644
-3.36847 -5.51606 12.3534
-3.11246 -5.50886 12.3759
-2.87592 -5.46853 12.3649
-2.62192 -5.49139 12.4155
-2.38344 -5.45807 12.4113
-2.15078 -5.4037 12.3866
-1.90261 -5.40549 12.4167
-1.65055 -5.42133 12.4605
-1.40036 -5.39307 12.4625
-1.15495 -5.381 12.493
-0.912596 -5.36173 12.5025
-0.672173 -5.33544 12.5052
-0.431751 -5.30915 12.5079
-0.208786 -5.21966 12.4489
0.0432685 -5.2355 12.4927
0.287569 -5.22326 12.5091
0.559086 -5.27223 12.5864
0.789815 -5.21083 12.5549
1.0283 -5.17752 12.5507
1.25708 -5.1091 12.5123
1.46648 -4.97046 12.4054
1.71465 -4.97226 12.4355
1.9667 -4.98809 12.4793
2.20519 -4.95478 12.4751
2.43591 -4.89338 12.4436
2.68999 -4.87916 12.4592
2.92652 -4.83883 12.4482
3.16113 -4.79147 12.4303
3.3841 -4.70198 12.3714
3.61094 -4.62654 12.3261
3.84943 -4.59323 12.3219
4.0879 -4.55992 12.3178
4.31281 -4.47745 12.2657
4.55331 -4.41408 12.2334
4.77241 -4.31055 12.1607
5.00119 -4.24213 12.1223
5.23385 -4.18775 12.0976
5.45488 -4.09124 12.0318
5.68173 -4.0158 11.9865
5.92021 -3.98249 11.9823
6.16071 -3.91911 11.95
6.39143 -3.85771 11.9185
6.6493 -3.89462 11.9828
6.87421 -3.81215 11.9307
7.07668 -3.65227 11.7891
7.30935 -3.59789 11.7644
7.54395 -3.55053 11.7466
7.75536 -3.38184 11.6115
7.98027 -3.29937 11.5594
8.22453 -3.28712 11.5758
8.43982 -3.16955 11.4894
8.70156 -3.2205 11.5675
8.94967 -3.22229 11.5975
9.15333 -3.02551 11.4351
9.37831 -2.94305 11.383
9.61673 -2.90973 11.3788
9.85332 -2.8694 11.3678
10.1073 -2.89225 11.4184
10.3535 -2.88703 11.4417
10.5978 -2.87479 11.4581
10.8421 -2.86254 11.4745
11.0612 -2.75901 11.4018
11.3037 -2.70266 11.3764
11.5189 -2.58508 11.29
11.7574 -2.55177 11.2858
12.0055 -2.55357 11.3159
12.2324 -2.47812 11.2707
12.4611 -2.4097 11.2322
12.6881 -2.29718 11.152
12.9246 -2.25684 11.141
13.1465 -2.16717 11.0679
13.3637 -2.05662 10.9884
13.6002 -2.01628 10.9774
13.8367 -1.93887 10.9314
14.083 -1.93365 10.9546
14.3401 -1.96371 11.0262
14.5639 -1.88107 10.96
14.7578 -1.68625 10.7983
15.0118 -1.70911 10.8489
15.2426 -1.61063 10.7824
15.4655 -1.52114 10.7234
15.7041 -1.48783 10.7192
15.9192 -1.37026 10.6329
16.1431 -1.25053 10.5317
16.3718 -1.18211 10.4932
16.5832 -1.05049 10.3932
16.8179 -1.00314 10.3753
17.037 -0.862521 10.2676
17.2716 -0.815167 10.2498
17.4868 -0.697598 10.1634
17.7184 -0.605952 10.0896
17.9453 -0.530513 10.0443
18.1566 -0.398897 9.94427
18.3719 -0.24424 9.8229
18.6143 -0.224971 9.83244
18.8392 -0.142504 9.78032
19.063 -0.0227767 9.67911
19.2822 0.0807512 9.60645
19.5148 0.13513 9.58174
19.7513 0.175467 9.57072
19.9764 0.295009 9.48362
20.2148 0.328325 9.47945
20.4302 0.482976 9.35809
20.6462 0.593708 9.26448
20.8788 0.648084 9.23977
21.1134 0.695446 9.2219
21.3519 0.728756 9.21775
21.6001 0.764045 9.21283
21.8456 0.776106 9.24334
22.0724 0.851557 9.19806
22.2904 0.955259 9.11131
22.5367 0.997571 9.09955
22.783 1.0028 9.1228
23.0323 1.00082 9.16699
23.29 0.926834 9.26633
23.5247 1.01127 9.21347
23.765 1.00048 9.25116
24.0113 1.0057 9.27442
24.2556 1.01795 9.29081
24.5077 1.0392 9.29961
24.7822 0.908857 9.46787
25.0439 0.857904 9.54592
25.2931 0.818849 9.62511
25.582 0.669595 9.79908
25.8409 0.595428 9.91253
26.1172 0.458071 10.0876
26.3867 0.379035 10.1931
26.6543 0.307015 10.2917
26.9363 0.111511 10.5223
27.2187 -0.00983888 10.683
27.5201 -0.275564 10.9822
27.7877 -0.34758 11.0808
