-17.0256 -10.7931 0.116257
-16.9721 -10.7549 0.114628
-16.6832 -10.9353 0.007813
-16.0484 -11.16 -0.714529
-16.087 -11.1585 -0.424993
-16.0782 -11.155 -0.36091
-15.9334 -11.2011 -0.512808
-15.5915 -11.4526 -0.551782
-15.9296 -11.2096 0.00045
-19.9668 -10.4395 -1.90034
-19.6827 -10.5392 -1.49678
-19.0971 -10.7258 -1.89592
-18.8352 -10.8127 -2.20868
-18.9927 -10.762 -1.93269
-19.3965 -10.6141 -0.832324
-18.0569 -11.0592 -2.55526
-19.2021 -10.6828 -0.859944
-18.9977 -10.7524 -0.982869
-18.9897 -10.7492 -0.951763
-19.0159 -10.7551 -0.561527
-19.8834 -10.4631 0.75976
-19.8599 -10.4768 1.16258
-17.2493 -10.6238 -2.02217
-17.082 -10.617 -2.22951
-16.9815 -10.6507 -2.24712
-16.9936 -10.6612 -2.16526
-17.8484 -10.8101 -0.967579
-18.8038 -9.86859 0.677533
-17.8042 -10.7711 -0.595901
-18.7759 -9.91637 0.794422
-16.7895 -10.9196 -1.70249
-16.9585 -10.8825 -1.39622
-18.6499 -10.022 1.22119
-18.5945 -10.0403 1.19728
-17.1085 -10.8463 -0.607554
-17.167 -10.8261 -0.418636
-17.132 -10.8405 -0.409144
-17.2431 -10.8154 -0.177595
-17.2921 -10.789 -0.0251
-17.3685 -10.6716 0.11746
-16.1685 -11.1097 -1.04532
-17.0152 -10.6638 0.199743
-15.9573 -11.1899 -0.742785
-15.9231 -11.2034 -0.709526
-16.0548 -11.1776 -0.450524
-20.2218 -10.3583 -1.55352
-18.9624 -10.7594 -1.94083
-20.0221 -10.426 -0.022141
-19.7907 -10.4965 -0.353783
-20.279 -10.3325 0.7649
-20.3141 -10.3239 0.995572
-17.7486 -10.5742 -2.26172
-17.5659 -10.7 -2.25127
-19.4059 -10.6231 0.137388
-19.651 -10.5408 1.16258
-17.8274 -10.8111 -0.78215
-16.4053 -10.8812 -2.533
-18.2277 -10.1808 0.333009
-16.513 -11.0133 -1.31543
-18.7864 -9.86749 1.57527
-17.0069 -10.8764 -0.47772
-15.3268 -11.332 -2.27723
-16.1235 -11.1259 -0.488946
-15.9766 -11.1876 -0.513514
-16.3472 -10.7751 0.506496
-16.9201 -8.76964 1.37899
-19.6928 -10.5259 -2.0728
-19.0544 -10.7425 -2.47032
-18.59 -10.8822 -2.49145
-19.3799 -10.6289 -1.10392
-19.0386 -10.7392 -0.950774
-19.9955 -10.4254 0.428475
-18.8748 -10.7935 -1.12287
-19.7533 -10.5056 0.665992
-19.2816 -10.6597 0.320588
-17.5651 -10.9013 -1.34753
-17.8539 -10.8094 -0.895795
-17.5156 -10.9168 -1.33471
-17.2058 -10.8095 -0.78217
-18.1808 -10.1782 0.519675
-18.5894 -10.0423 1.19112
-16.5513 -10.965 -1.35065
-17.0543 -10.6725 0.286654
-20.1979 -10.3638 -1.58153
-18.6476 -10.882 -2.49825
-19.4072 -10.6226 0.299653
-18.1714 -10.6589 -0.32553
-18.6229 -10.0282 1.22542
-18.161 -10.075 1.63742
-16.1907 -11.1222 -0.621694
-15.4183 -11.5563 -0.859958
-16.5028 -10.7094 0.373223
-15.992 -9.0362 1.26551
-18.6472 -10.8715 -2.63268
-18.8589 -10.7896 -1.20871
-17.8683 -10.7989 -0.286993
-18.7176 -9.98704 0.918641
-16.7862 -10.9391 -0.957213
-16.7304 -10.8966 -0.74982
-16.3909 -8.92819 1.2722
-17.359 -10.77 -2.34629
-16.6251 -10.9541 -1.93855
-17.5671 -10.7994 0.165994
-16.8632 -10.8295 -0.152059
-17.4491 -10.8738 -1.41606
-18.5871 -10.0114 0.802621
-17.3403 -10.8385 -1.479
-17.1292 -10.8232 -1.23917
-15.6769 -11.18 -2.15431
-20.3783 -10.315 -1.22012
-20.3543 -10.3144 -1.41828
-20.2554 -10.3483 -1.07112
-20.2987 -10.3284 -1.43775
-19.9812 -10.4281 -1.13097
-19.7666 -10.5009 -0.032439
-19.8252 -10.4879 -0.645282
-19.9487 -10.4586 -1.27753
-19.3292 -10.5024 1.5293
-19.4975 -10.5774 0.738463
-19.7603 -10.5063 -1.78819
-19.7884 -10.5135 -2.19178
-19.6475 -10.5355 -1.72036
-19.1909 -10.6755 0.398972
-19.5187 -10.5844 -2.33587
-19.2651 -10.6579 -1.17968
-19.0791 -10.7173 -0.799224
-19.2544 -10.67 -2.27311
-19.2672 -10.6757 -2.40595
-19.2153 -10.6955 -2.24247
-18.9631 -10.7597 -1.06679
-19.1164 -10.7222 -1.93952
-18.9812 -10.7452 -1.48155
-18.8345 -10.7999 -1.97197
-18.5656 -10.8868 -1.32013
-18.6879 -10.8504 -2.54277
-18.29 -10.9781 -2.39147
-17.7634 -10.7292 -0.460122
-17.9927 -11.0652 -2.81425
-17.3031 -10.7841 -0.530193
-17.2115 -10.8152 -0.788207
-16.9764 -10.8045 0.073873
-17.0431 -10.8669 -0.787857
-16.8512 -10.9173 -1.00012
-16.6558 -11.0192 -0.528991
-20.5334 -10.2491 0.759778
-20.3789 -10.3014 0.787119
-20.4056 -10.2923 0.295099
-20.5653 -10.2512 -1.08608
-20.2485 -10.3453 0.112849
-20.4126 -10.2964 -1.15079
-20.3895 -10.3032 -1.44608
-20.3313 -10.329 -1.23903
-20.2337 -10.3727 -0.871072
-19.8827 -10.4635 0.86723
-19.9499 -10.4432 0.30136
-19.8982 -10.4591 -0.704752
-19.8578 -10.4837 -0.63487
-20.1433 -10.3837 -2.2137
-19.3209 -10.4968 1.53767
-19.5602 -10.5735 -0.17365
-19.3582 -10.6458 0.447169
-19.66 -10.5484 -1.5314
-19.1677 -10.6931 0.815434
-19.487 -10.6047 -0.810887
-19.5996 -10.554 -1.67284
-19.1713 -10.6888 0.439432
-19.3072 -10.6479 -0.305094
-19.1389 -10.7184 -0.820497
-19.1515 -10.6965 -1.09225
-18.6627 -10.0371 0.489819
-19.2668 -10.6666 -2.26961
-19.2055 -10.6814 -2.05413
-18.4101 -10.0968 1.14394
-18.6119 -10.374 -0.063728
-18.5961 -10.3881 -0.118683
-18.416 -10.1164 0.369757
-18.8385 -10.8037 -1.27162
-18.8273 -10.8111 -1.29234
-18.7682 -10.8411 -1.31392
-18.8553 -10.7944 -1.94993
-18.8435 -10.795 -1.96477
-18.9363 -10.7851 -2.56111
-18.4712 -10.9226 -2.58509
-17.8921 -10.8109 -0.049593
-17.8646 -10.7098 -0.489393
-17.8748 -10.7896 -0.609542
-17.7873 -10.7232 -0.430981
-17.5858 -10.3861 0.490667
-17.8606 -10.8217 -0.912055
-17.2775 -8.96315 1.17292
-17.5205 -10.9126 -0.642231
-17.2013 -8.92186 1.07263
-17.1626 -10.5131 0.379656
-17.2113 -10.8241 -0.131219
-17.2094 -10.8234 -0.263782
-17.2059 -10.819 -0.803468
-16.9576 -10.5831 0.399398
-16.8031 -10.6315 0.498688
-17.0594 -10.7996 -1.40375
-16.7412 -10.7621 -0.261543
-16.8262 -10.9343 -0.779184
-16.6409 -11.0192 -0.531672
-16.6453 -11.0195 -0.547284
-16.633 -10.727 -0.364581
-15.8662 -11.0437 -2.0279
-20.5265 -10.2501 0.920531
-20.2873 -10.3473 0.139727
-20.0694 -10.3899 0.919812
-19.9821 -10.417 0.915364
-19.8142 -10.3434 1.53104
-20.0629 -10.3934 0.457686
-20.0622 -10.3911 0.316099
-19.7255 -10.4245 1.47039
-20.3806 -10.3112 -1.96022
-19.9813 -10.438 -0.143791
-20.2364 -10.349 -1.55981
-20.2328 -10.3584 -1.736
-19.8835 -10.4649 -0.501791
-19.621 -10.5532 0.666272
-19.7037 -10.53 0.082041
-19.9578 -10.4553 -1.28771
-19.4187 -10.6218 0.476483
-19.5835 -10.5573 -0.427023
-19.658 -10.5481 -1.34788
-19.7115 -10.5214 -1.67349
-19.704 -10.5216 -1.70016
-19.686 -10.527 -2.02886
-19.2505 -10.6742 0.080912
-19.6541 -10.531 -2.05802
-19.3728 -10.6332 -0.73052
-19.4887 -10.6051 -1.79993
-19.1612 -10.7041 -0.837586
-18.7547 -10.2363 0.130831
-18.9866 -10.7486 -1.02145
-18.2344 -10.1836 0.478507
-18.2187 -10.1839 0.481153
-18.2133 -10.7041 -0.082847
-18.4348 -10.9321 -1.31464
-17.7738 -10.3314 0.418615
-17.6987 -10.3444 0.344561
-18.1472 -11.0203 -2.50135
-17.5871 -10.8884 -0.168695
-17.306 -8.97742 1.07467
-17.3805 -10.441 0.508495
-17.2048 -10.8231 -0.281822
-17.2078 -10.8205 -0.675795
-16.7603 -10.6331 0.506038
-16.89 -10.9037 -1.48264
-16.6526 -10.7319 -0.294056
-16.6386 -10.7686 -0.421576
-16.7724 -10.9414 -1.68863
-16.2995 -11.0917 -1.46315
-16.0867 -11.1643 -0.672018
-15.9993 -11.1504 -1.05217
-16.1438 -10.9149 -2.22273
-15.5315 -11.5165 -0.629735
-15.5515 -11.4838 -1.67286
-20.3224 -10.3243 0.553209
-20.1391 -10.375 0.655097
-19.8958 -10.4665 0.907805
-20.0624 -10.4049 -1.83148
-19.7139 -10.533 -0.062998
-19.6941 -10.5448 -0.890122
-19.6712 -10.5418 -0.889544
-19.7105 -10.5188 -1.92332
-19.2675 -10.6675 0.302387
-19.6471 -10.5327 -2.09749
-19.4963 -10.6028 -1.76502
-19.3682 -10.6416 -1.30857
-19.4195 -10.6256 -1.62147
-19.3406 -10.6522 -1.62175
-19.3327 -10.6546 -1.59748
-19.0964 -10.7358 -0.703284
-18.6846 -10.0323 0.320861
-18.9978 -10.7561 -0.985369
-19.0531 -10.7303 -1.41887
-18.6454 -10.3659 -0.020037
-19.0826 -10.7329 -2.48942
-18.542 -10.2124 -0.81038
-18.8007 -10.8209 -1.8401
-18.3828 -10.9356 -1.27692
-17.283 -8.96223 1.29198
-17.0842 -10.8533 -0.194545
-16.1814 -11.1195 -0.964093
-15.9121 -11.2205 -0.025885
-16.0497 -11.1613 -0.711045
-16.3337 -10.9138 -2.55189
-15.592 -11.4973 -0.598146
-14.7827 -12.0828 -2.96954
-20.4884 -10.2641 0.889268
-19.86 -10.4697 1.1588
-19.8848 -10.4591 0.767271
-19.8533 -10.4692 0.685725
-19.9742 -10.4474 -1.30157
-19.6754 -10.525 0.054673
-19.4353 -10.5916 1.06033
-19.4755 -10.6101 0.879511
-19.9655 -10.4413 -1.89664
-19.9878 -10.4249 -2.10465
-19.3087 -10.6546 0.209439
-19.1717 -10.6884 -0.879701
-18.5849 -10.051 1.02199
-18.4688 -10.0658 1.38797
-19.043 -10.7368 -1.0261
-18.9893 -10.7523 -0.952054
-18.9636 -10.7564 -0.965534
-18.9698 -10.7594 -0.998268
-18.1708 -9.91356 1.67647
-18.849 -10.7911 -1.3429
-19.0739 -10.7378 -2.41871
-18.8391 -10.8171 -2.20697
-18.8004 -10.8205 -2.26507
-17.9573 -10.2648 0.599015
-17.9558 -10.7781 -0.501974
-17.6132 -10.3758 0.442949
-17.8526 -10.8137 -0.761016
-18.0937 -11.039 -2.52617
-17.2114 -10.8103 -0.710585
-16.9165 -8.75638 1.37793
-16.8978 -8.7332 1.39932
-17.0117 -10.8683 -0.979291
-16.6975 -10.6581 0.350052
-17.2173 -10.6302 -2.07858
-17.2139 -10.6281 -2.1187
-16.7197 -10.7612 -0.24115
-16.6853 -10.793 -0.221171
-16.6814 -10.7689 -0.355367
-16.0853 -10.8572 0.598462
-15.9985 -11.1876 -0.046561
-15.9301 -11.2071 -0.002957
-16 -11.1882 -0.448027
-15.5398 -11.5069 -0.775228
-20.333 -10.3184 0.58765
-19.9624 -10.442 0.447865
-19.8017 -10.4902 -0.553505
-19.4528 -10.605 0.875555
-19.5956 -10.5523 -0.376325
-19.4108 -10.6131 0.300864
-19.1067 -10.7216 -1.5629
-18.2609 -9.92182 1.68584
-18.3998 -10.1304 0.490893
-18.9964 -10.7487 -2.46712
-18.125 -10.7533 -0.414699
-17.5337 -10.7582 0.251915
-17.1027 -8.8743 1.16971
-17.128 -10.5306 0.412118
-17.1617 -10.8324 -0.259363
-17.0549 -10.6728 0.247752
-17.0765 -10.862 -0.17872
-17.1591 -10.8239 -0.977445
-16.942 -10.8413 -0.061266
-16.9503 -10.8192 -0.104562
-16.7146 -10.6509 0.526694
-16.1342 -11.1366 -0.750256
-16.0416 -11.1707 -0.78443
-16.2774 -10.93 -2.52944
-19.8442 -10.4931 -0.288226
-20.0363 -10.423 -1.60263
-19.6614 -10.5288 0.071689
-19.0287 -10.7227 -0.894794
-18.8955 -10.7886 -2.35257
-18.2529 -10.6977 -0.085322
-17.9209 -10.4977 -2.11431
-17.2465 -10.7902 -0.503645
-17.1058 -10.6511 -2.11511
-16.4331 -8.91276 1.06154
-16.3717 -11.0649 -1.81567
-18.7238 -10.2125 0.178349
-18.6506 -10.0488 0.295795
-18.5526 -10.0745 0.305301
-18.6582 -10.8451 -2.54009
-17.9066 -10.6485 -1.542
-17.2352 -10.7038 -1.24936
-20.004 -10.4354 -1.21709
-18.8653 -10.7816 -1.20547
-16.3229 -11.0756 -1.71192
-19.5461 -10.5586 0.744922
-18.7309 -10.1525 0.216066
-17.682 -10.6098 -2.24704
-17.5818 -10.7081 -2.14468
-16.7356 -10.9698 -0.63486
-18.6234 -10.0163 0.624604
-17.7187 -10.843 -1.22106
-17.4632 -10.8257 -0.039258
-17.1231 -10.5838 -2.14127
-17.3537 -10.6399 -2.43409
-16.2351 -11.0608 -1.60837
-15.1684 -11.4234 -1.70006
-16.9018 -10.7329 -1.80767
-16.7759 -8.84477 1.32514
-20.5296 -10.2524 0.854579
-20.5185 -10.2553 0.790033
-19.8973 -10.4456 1.03815
-20.5538 -10.2399 0.447867
-19.8833 -10.4632 0.866751
-20.1305 -10.3838 0.491616
-19.4825 -10.5928 0.74714
-19.5693 -10.5687 0.619769
-20.2527 -10.3456 0.090046
-19.967 -10.45 0.140697
-20.4391 -10.303 -0.293701
-19.6763 -10.5404 0.131755
-19.8323 -10.4738 0.000641
-19.839 -10.4744 -0.012947
-19.8131 -10.4855 -0.021486
-20.1477 -10.3791 -0.247727
-20.103 -10.4068 -0.303171
-20.054 -10.4252 -0.296808
-18.6345 -10.0496 0.397663
-19.6769 -10.535 -0.087809
-19.9466 -10.4655 -0.295964
-20.3584 -10.3141 -0.551026
-19.3349 -10.6269 -0.237074
-20.0608 -10.4239 -0.644532
-19.0299 -10.7471 -0.096218
-20.0682 -10.412 -0.665961
-19.696 -10.5287 -0.506549
-19.8262 -10.489 -0.646268
-17.5803 -10.39 0.414338
-19.5429 -10.6029 -0.643253
-19.5671 -10.5665 -0.699319
-20.0981 -10.3957 -1.0236
-20.2864 -10.3388 -1.14671
-19.935 -10.4516 -0.984032
-20.3793 -10.3146 -1.21905
-20.2297 -10.3576 -1.1735
-19.6785 -10.5371 -0.903992
-17.4719 -10.7565 0.204264
-19.4314 -10.6166 -0.818776
-20.2436 -10.357 -1.26027
-19.9819 -10.4283 -1.13054
-20.1152 -10.391 -1.22301
-19.7192 -10.5217 -1.02012
-19.9877 -10.4294 -1.17143
-19.5384 -10.5706 -0.954215
-19.0615 -10.7274 -0.718026
-19.5273 -10.5742 -0.957091
-20.0911 -10.4035 -1.26415
-19.6031 -10.5538 -1.03515
-17.3716 -10.7688 0.077221
-19.3869 -10.6168 -0.959113
-19.7139 -10.5156 -1.17327
-16.9767 -10.8166 0.075499
-17.8205 -10.7167 -0.42201
-18.9909 -10.7475 -1.03758
-18.9693 -10.7527 -1.03124
-18.9793 -10.7505 -1.0421
-20.3348 -10.3239 -1.71314
-18.9388 -10.7633 -1.04091
-18.9251 -10.7718 -1.03561
-20.4247 -10.2923 -1.77788
-18.9638 -10.7582 -1.06538
-20.1196 -10.3912 -1.66312
-18.982 -10.7437 -1.23722
-19.7648 -10.5022 -1.74616
-19.4205 -10.633 -1.61317
-15.9973 -11.2058 -0.004516
-15.9929 -11.2039 -0.014393
-18.5538 -10.8933 -1.30828
-18.5685 -10.886 -1.32061
-19.1118 -10.7253 -1.5983
-18.6131 -10.874 -1.36879
-16.6336 -10.7314 -0.364752
-19.4914 -10.6085 -1.83875
-17.2118 -10.8196 -0.787518
-18.6553 -10.8666 -1.57973
-18.6011 -10.8768 -1.56617
-19.4016 -10.6117 -1.99883
-19.7881 -10.5132 -2.18983
-19.8004 -10.5023 -2.2195
-16.8436 -10.901 -0.873233
-18.7646 -10.8349 -1.82215
-18.6435 -10.8561 -1.9077
-15.5744 -11.4619 -0.576654
-18.647 -10.8565 -1.98897
-17.5997 -10.8502 -1.49927
-18.7456 -10.8236 -2.20601
-18.6668 -10.85 -2.20653
-18.3322 -10.9563 -2.16417
-17.6923 -10.8149 -1.85081
-18.2914 -10.9834 -2.39426
-18.2558 -10.9862 -2.57128
-18.166 -11.0139 -2.5387
-17.2755 -10.5832 -2.17194
-18.1819 -11.0066 -2.79014
-18.1985 -10.9968 -2.80071
-17.9913 -11.0697 -2.81497
-15.8657 -11.0325 -2.015
-19.321 -10.4958 1.53836
-19.3322 -10.5008 1.52867
-20.4529 -10.2731 0.7342
-20.4285 -10.2822 0.738678
-20.2488 -10.3388 0.784987
-20.5347 -10.2476 0.322381
-19.7649 -10.5012 0.703504
-19.7254 -10.5032 0.64994
-19.9645 -10.4392 0.441328
-20.2687 -10.3475 0.130204
-19.6641 -10.5335 0.477092
-19.8517 -10.4777 0.20019
-19.7722 -10.5101 0.15959
-19.749 -10.5211 0.12812
-20.0294 -10.4337 -0.123484
-19.9809 -10.4359 -0.144043
-19.7654 -10.5022 -0.031084
-19.2443 -10.6751 0.175574
-19.2406 -10.6813 0.164532
-20.4039 -10.3003 -0.553654
-19.8912 -10.4751 -0.310453
-19.1266 -10.6938 0.067746
-19.8061 -10.49 -0.315215
-19.3787 -10.6388 -0.091777
-19.5234 -10.5769 -0.263403
-19.2008 -10.678 -0.105432
-19.6515 -10.5346 -0.426206
-19.4937 -10.5829 -0.383244
-20.1493 -10.4006 -0.898516
-20.332 -10.3246 -1.08645
-19.5658 -10.57 -0.682794
-19.7804 -10.496 -0.815093
-18.2594 -10.6949 -0.046167
-19.8119 -10.4939 -0.873592
-20.405 -10.3135 -1.27074
-19.2823 -10.6634 -0.687289
-20.3319 -10.328 -1.23994
-20.0064 -10.4249 -1.14239
-19.521 -10.5817 -0.94375
-18.6337 -10.358 -0.534155
-19.8823 -10.4649 -1.21093
-19.9286 -10.4595 -1.24227
-19.9318 -10.4601 -1.27523
-19.3995 -10.6357 -1.04786
-19.2499 -10.6651 -1.13252
-19.1518 -10.6974 -1.09187
-17.2131 -10.8244 -0.130497
-19.6446 -10.5474 -1.38081
-17.9232 -10.7602 -0.545026
-20.3833 -10.3115 -1.90755
-19.0475 -10.7414 -1.3367
-17.8655 -10.8192 -0.767326
-17.5192 -10.9126 -0.639421
-19.4801 -10.6166 -1.63296
-19.0691 -10.731 -1.46137
-17.6789 -10.8652 -0.781405
-17.8621 -10.8229 -0.909455
-18.9416 -10.7575 -1.5081
-17.2148 -10.8188 -0.655911
-19.0091 -10.7731 -1.61247
-18.9489 -10.7615 -1.62244
-16.5797 -10.7505 -0.440099
-19.6171 -10.5502 -1.94385
-19.4785 -10.5929 -2.00731
-19.6013 -10.5505 -2.07062
-19.4752 -10.5947 -2.03576
-18.8287 -10.8097 -1.85043
-18.8573 -10.793 -1.94758
-16.0934 -11.1629 -0.651475
-18.9478 -10.7694 -2.01912
-15.5798 -11.4333 -0.479556
-15.6012 -11.4588 -0.533605
-15.5509 -11.43 -0.520799
-16.1782 -11.1267 -0.775194
-18.7947 -10.8127 -2.02852
-17.616 -10.8652 -1.54506
-18.7451 -10.8382 -2.15385
-18.791 -10.8161 -2.20083
-18.8411 -10.8303 -2.27695
-18.6563 -10.869 -2.38588
-18.6915 -10.8591 -2.5003
-18.2888 -10.9767 -2.37336
-18.287 -10.9735 -2.40225
-18.1411 -11.0223 -2.44465
-18.132 -11.0142 -2.45957
-15.5563 -11.4819 -1.56333
-17.2474 -10.5749 -2.14996
-17.9869 -11.0676 -2.82963
-18.004 -11.0635 -2.83727
-19.9506 -10.2918 1.53689
-20.3015 -10.325 1.17059
-20.1591 -10.3655 1.16631
-20.0076 -10.4182 0.91935
-20.3196 -10.3197 0.622621
-20.298 -10.3311 0.545102
-19.04 -10.7217 1.11731
-19.4503 -10.6071 0.861489
-19.9965 -10.4481 0.468852
-19.9373 -10.4439 0.456221
-19.9365 -10.4482 0.297592
-19.7349 -10.5198 0.170713
-20.3799 -10.3211 -0.250308
-17.3063 -8.9777 1.07537
-17.2017 -8.9218 1.07409
-18.2176 -10.1788 0.465782
-19.8066 -10.4937 -0.380639
-20.0805 -10.4088 -0.569686
-16.4653 -8.91023 1.15793
-19.9651 -10.4388 -0.53061
-19.4827 -10.5878 -0.369924
-19.9235 -10.4718 -0.632494
-17.5499 -10.3917 0.399178
-19.4683 -10.6028 -0.584483
-18.4786 -10.4186 -0.111862
-18.5023 -10.4375 -0.130543
-19.3867 -10.6279 -0.750523
-17.8943 -10.8118 -0.048945
-16.9613 -10.5814 0.398395
-20.0414 -10.4156 -1.25504
-16.5118 -10.7276 0.496787
-19.0469 -10.7497 -0.869024
-17.0331 -10.8207 0.140445
-19.661 -10.5487 -1.34392
-16.6842 -10.9354 0.009036
-18.8556 -10.7901 -1.15118
-17.8896 -10.813 -0.733853
-18.7944 -10.8132 -1.29091
-18.7481 -10.8416 -1.29886
-19.0492 -10.729 -1.47064
-19.5153 -10.5835 -1.77195
-17.2096 -10.8214 -0.673815
-18.4351 -10.93 -1.31373
-16.6411 -10.7671 -0.421046
-16.6011 -10.7712 -0.457569
-19.966 -10.4374 -2.12453
-17.2077 -10.8182 -0.802057
-19.3349 -10.6533 -1.86471
-19.6551 -10.5313 -2.05525
-19.7349 -10.5272 -2.17407
-19.7095 -10.5262 -2.16326
-16.0881 -11.1654 -0.66985
-19.0797 -10.7218 -2.14838
-16.045 -11.1373 -0.759354
-16.0897 -11.1609 -0.799807
-18.876 -10.8106 -2.2016
-15.5857 -11.5216 -0.759399
-15.5562 -11.5175 -0.763473
-18.5975 -10.8739 -2.14093
-18.5934 -10.8735 -2.16024
-18.7757 -10.8166 -2.28919
-18.5527 -10.8872 -2.45014
-18.5402 -10.9048 -2.54876
-17.9854 -11.0692 -2.58888
-17.6003 -10.6948 -2.29419
-17.6042 -10.6767 -2.30817
-17.197 -10.6192 -2.09902
-17.6088 -10.6758 -2.33968
-20.0502 -10.4099 1.19181
-19.682 -10.541 1.18278
-19.8977 -10.4693 0.909727
-20.2939 -10.3366 0.661422
-19.887 -10.4579 0.758365
-19.8525 -10.4696 0.688302
-17.6508 -9.18935 1.40831
-18.5361 -10.0619 1.14284
-18.3901 -10.1033 1.17831
-19.2048 -10.6806 0.791991
-20.2865 -10.3429 0.104002
-19.2588 -10.6687 0.688997
-19.941 -10.4582 0.155562
-19.17 -10.6794 0.456171
-20.3485 -10.322 -0.238121
-20.3784 -10.3202 -0.278285
-19.3002 -10.6506 0.173041
-19.3371 -10.6361 0.152004
-19.372 -10.6319 0.131182
-19.2982 -10.6558 -0.078111
-20.0017 -10.4249 -0.578088
-18.4978 -10.4195 -0.091003
-17.1339 -10.5345 0.497233
-19.4334 -10.618 -0.710151
-19.6771 -10.5328 -0.856922
-19.9618 -10.4596 -1.01087
-19.6964 -10.5415 -0.910035
-17.6984 -10.8848 -0.125992
-19.1072 -10.7206 -0.858723
-19.0073 -10.7425 -0.921874
-18.9696 -10.7584 -0.999166
-19.0111 -10.7545 -1.01568
-17.9615 -10.7763 -0.497189
-18.9846 -10.7512 -1.02148
-19.0098 -10.7435 -1.04089
-17.2085 -10.8244 -0.149805
-18.5678 -10.2018 -0.811747
-18.5691 -10.189 -0.835679
-18.5488 -10.1928 -0.826885
-17.2083 -10.8203 -0.280394
-19.119 -10.7119 -1.30997
-17.2041 -10.8078 -0.35303
-17.2991 -10.7823 -0.459523
-18.8067 -10.8051 -1.30776
-19.0535 -10.7369 -1.57824
-19.1175 -10.7212 -1.60804
-18.3837 -10.9322 -1.27977
-19.4901 -10.6037 -1.80109
-18.3951 -10.9368 -1.31277
-17.1902 -10.8211 -0.771017
-17.2017 -10.8208 -0.827954
-19.5068 -10.5863 -1.95397
-19.1536 -10.7179 -1.91758
-15.9267 -11.2088 -0.513299
-19.047 -10.7316 -2.11219
-18.9849 -10.7518 -2.09326
-17.908 -10.607 -1.57468
-18.8179 -10.8235 -2.1547
-18.7962 -10.8162 -2.30012
-18.7852 -10.8152 -2.31955
-18.5372 -10.8929 -2.23623
-17.8174 -10.6176 -1.94901
-17.2506 -10.6146 -1.90698
-20.4575 -10.2725 0.896455
-19.747 -10.5284 0.95293
-17.2863 -8.96519 1.2924
-17.5047 -9.0662 1.06362
-18.4018 -10.1321 0.490472
-19.8252 -10.4923 -0.333329
-19.7493 -10.5113 -0.498502
-20.204 -10.3716 -0.757848
-20.1649 -10.3901 -0.96762
-19.975 -10.4451 -1.24093
-19.0004 -10.7531 -0.984874
-19.0475 -10.7402 -1.02976
-19.0402 -10.7341 -1.05106
-16.9991 -10.8733 -0.158587
-16.8083 -10.845 -0.16224
-19.6608 -10.5463 -1.58455
-17.235 -10.7984 -0.387652
-16.7271 -10.7584 -0.247745
-19.0659 -10.7293 -1.50204
-16.7256 -10.8352 -0.353122
-16.6644 -10.776 -0.38879
-17.297 -10.7806 -0.969507
-18.7825 -10.8103 -1.76236
-17.6154 -10.8789 -1.35723
-17.4007 -10.6295 -1.29113
-15.5892 -11.5192 -0.793402
-16.127 -11.0783 -1.13458
-17.2422 -10.6264 -2.0015
-16.6416 -10.9649 -1.85017
-17.5896 -10.6418 -2.3552
-17.277 -10.5921 -2.41442
-16.376 -10.8975 -2.55994
-16.1453 -10.9659 -2.55786
-15.5277 -11.0965 -2.8279
-20.3387 -10.3208 0.581596
-19.7003 -10.5173 0.693422
-19.8701 -10.4689 0.49132
-19.2952 -10.6579 0.81768
-18.1017 -10.1914 1.19015
-18.2092 -10.1612 0.934872
-19.1173 -10.7104 0.521802
-18.2291 -10.1788 0.334072
-20.0057 -10.4239 -0.586217
-16.9038 -8.66681 0.709537
-19.4278 -10.609 -0.590835
-19.2102 -10.6808 -0.805997
-19.5209 -10.5894 -1.02253
-16.0865 -10.8667 0.52266
-19.7938 -10.5086 -1.6177
-16.1304 -11.1426 -0.5602
-16.1012 -11.1644 -0.848657
-16.1074 -11.1367 -1.01023
-18.8927 -10.7887 -2.32486
-18.3451 -10.9573 -2.37761
-18.0933 -11.0524 -2.52991
-17.5443 -10.7005 -2.5231
-16.5927 -10.8305 -2.55806
-14.9031 -12.0315 -2.89926
-18.8471 -10.0185 1.42426
-18.1542 -10.0405 1.64283
-18.6414 -10.0183 0.899127
-15.87 -8.65638 1.67799
-18.7712 -10.3088 0.075297
-20.1152 -10.4044 -0.888241
-19.3942 -10.6381 -1.31176
-19.3433 -10.6186 -1.31175
-16.6102 -10.7051 -0.316391
-18.8284 -10.8098 -2.25669
-17.22 -10.5969 -2.25123
-17.0478 -10.6333 -2.27208
-18.7257 -10.1859 0.185129
-20.1301 -10.3963 -0.943727
-17.4849 -10.6783 0.252203
-17.2278 -10.8044 -0.953275
-18.8625 -10.7769 -2.07607
-19.0517 -10.7547 -2.47667
-16.8841 -8.67491 1.46372
-19.2024 -10.6455 0.207012
-18.5469 -10.078 0.302713
-19.4785 -10.5904 -0.874937
-20.4258 -10.3057 -1.50603
-17.3068 -10.7714 -0.106336
-17.2835 -10.7811 -0.503883
-17.3096 -10.7701 -0.633059
-16.7966 -10.9252 -0.96414
-17.9535 -10.577 -1.89484
-17.954 -10.582 -1.97488
-16.3359 -11.0577 -1.72493
-15.3829 -11.3876 -1.977
-18.7099 -9.98033 0.97507
-17.5281 -10.6478 -2.35746
-17.7336 -10.8322 -1.23879
-17.4207 -10.8023 -1.24635
-17.0187 -8.78601 1.37327
-18.4944 -10.9769 -1.96879
-18.4881 -10.0464 0.828537
-19.0936 -10.7318 -2.40513
-19.8863 -10.4748 -2.18406
-19.0864 -10.7278 -2.16584
-15.8599 -10.9956 -2.21966
-19.6429 -10.5422 -1.94387
-18.7488 -10.8363 -1.81861
-19.4752 -10.613 -1.64316
-20.3144 -10.3266 -1.52018
-19.4193 -10.6328 -1.61208
-20.3938 -10.3008 -1.45842
-19.5035 -10.5844 -1.50155
-20.3305 -10.3192 -1.38868
-20.3048 -10.3273 -1.36734
-19.5699 -10.5916 -1.31298
-19.1122 -10.7169 -1.32416
-19.0947 -10.7273 -1.31672
-18.5465 -10.8844 -1.35633
-20.0288 -10.419 -1.22466
-19.826 -10.4801 -1.22566
-20.4227 -10.2897 -1.1594
-20.2273 -10.3581 -1.17222
-19.8843 -10.4665 -1.19623
-19.2614 -10.658 -1.16928
-19.8899 -10.4665 -1.05621
-19.4055 -10.6264 -1.07608
-19.7675 -10.5029 -1.02287
-19.5642 -10.5751 -1.03426
-19.5877 -10.5702 -1.02861
-18.9615 -10.7577 -1.06423
-18.9686 -10.7558 -1.03111
-18.9404 -10.7651 -1.02592
-19.6667 -10.5396 -0.964817
-19.2305 -10.6839 -0.847451
-17.282 -10.7888 -0.787965
-17.1138 -10.8414 -0.787804
-19.7777 -10.4933 -0.554653
-19.8004 -10.4928 -0.51082
-19.6587 -10.5319 -0.436874
-17.8165 -10.7157 -0.42091
-19.93 -10.4483 -0.325013
-19.5227 -10.5776 -0.262375
-20.4967 -10.2651 -0.132783
-20.5246 -10.2565 -0.12592
-19.4505 -10.5935 -0.061785
-19.8072 -10.4805 -0.003272
-20.2564 -10.3393 0.175446
-19.797 -10.4988 0.189447
-19.8241 -10.4847 0.269714
-19.3823 -10.6217 0.299121
-20.1843 -10.3565 0.333213
-16.3215 -10.7838 0.390616
-20.1565 -10.3818 0.492206
-19.5674 -10.5684 0.620582
-19.3341 -10.6458 0.678359
-19.9421 -10.4409 0.668633
-20.2464 -10.3401 0.786343
-19.3793 -10.6224 0.913521
-20.0071 -10.4185 1.06926
-18.556 -10.8873 -2.42597
-17.1957 -10.6213 -2.09822
-19.9356 -10.4518 -1.93083
-19.2246 -10.7158 -1.62518
-20.5463 -10.2705 -1.24062
-18.7358 -10.852 -1.29282
-18.3938 -10.9377 -1.30981
-19.974 -10.4564 -1.0172
-20.0147 -10.4347 -1.00307
-19.3854 -10.624 -0.924202
-19.3062 -10.6635 -0.859866
-19.1134 -10.7182 -0.783789
-19.283 -10.6624 -0.687124
-19.8747 -10.4692 -0.573181
-19.8023 -10.4908 -0.53911
-19.9133 -10.4585 -0.510753
-16.6713 -11.0248 -0.528755
-19.8624 -10.4708 -0.419488
-19.9733 -10.4415 -0.327319
-16.7496 -10.8778 -0.348049
-16.7751 -10.8963 -0.337247
-19.2833 -10.6579 -0.302494
-19.9673 -10.4696 -0.28085
-20.3358 -10.3255 -0.195002
-19.9991 -10.436 -0.14586
-16.0391 -11.1831 -0.030223
-19.7171 -10.5261 0.11944
-19.9783 -10.4432 0.156967
-19.9749 -10.4431 0.168244
-16.945 -10.5833 0.389015
-19.4566 -10.6193 0.473143
-19.4246 -10.6223 0.473955
-20.0947 -10.3889 0.633092
-19.5897 -10.5655 0.666824
-20.2511 -10.3441 0.839726
-19.7843 -10.5108 0.94582
-19.6127 -10.5492 1.22274
-19.9223 -10.4435 1.41552
-18.2064 -10.9903 -2.78019
-18.7667 -10.84 -1.85399
-18.6144 -10.8769 -1.5666
-15.5479 -11.4762 -1.61703
-19.4418 -10.6449 -1.02734
-19.0086 -10.7412 -1.04195
-18.9673 -10.7595 -0.998594
-17.8772 -10.8038 -0.969521
-16.779 -10.9263 -0.809966
-20.4402 -10.2942 -0.640633
-19.9334 -10.4599 -0.645862
-20.3051 -10.3364 -0.155553
-19.8116 -10.5035 0.149929
-19.7011 -10.5225 0.232492
-16.7109 -10.6523 0.591543
-18.0492 -10.1457 0.661265
-20.2297 -10.3502 0.824575
-15.7423 -9.14007 0.925269
-19.8485 -10.4659 1.10516
-20.1625 -10.3665 1.16715
-19.5161 -10.5833 1.23162
-20.2598 -10.338 1.19259
-19.8147 -10.4928 -2.2157
-17.5708 -10.6725 -2.33527
-18.8354 -10.8137 -2.20112
-20.398 -10.3025 -1.47843
-17.4001 -10.6273 -1.28861
-19.1099 -10.7162 -0.878812
-19.4325 -10.6232 -0.707902
-19.2229 -10.6689 -0.705945
-19.1179 -10.7277 -0.668929
-19.5108 -10.5772 -0.337051
-19.2905 -10.653 -0.283829
-17.1653 -10.8264 -0.250438
-20.3238 -10.3271 0.090517
-17.3709 -10.6454 0.141326
-17.0185 -10.7349 0.169087
-19.4088 -10.6148 0.279996
-19.6834 -10.5342 0.477315
-20.3596 -10.3012 0.767427
-20.104 -10.391 0.946739
-19.4374 -10.5925 1.06143
-18.4172 -10.0986 1.27244
-19.198 -10.5331 1.53362
-19.6626 -10.3757 1.55997
-17.2832 -10.6031 -2.41108
-18.8352 -10.8104 -2.24954
-17.1541 -10.6155 -2.18891
-15.8991 -10.9909 -2.21519
-19.3932 -10.6309 -1.86692
-18.6345 -10.8616 -1.82747
-20.1204 -10.3856 -1.61312
-18.9105 -10.7725 -1.58417
-18.9503 -10.7634 -1.32339
-20.2279 -10.3618 -1.09749
-20.2248 -10.3624 -0.975391
-18.9999 -10.7507 -0.984033
-16.0423 -11.1703 -0.69484
-16.6787 -10.7337 -0.304949
-16.7024 -10.7187 -0.271198
-17.1635 -10.8278 -0.172533
-19.3028 -10.6462 -0.127157
-19.757 -10.5251 -0.057985
-19.4163 -10.6191 0.141469
-19.1599 -10.6969 0.458656
-16.4205 -8.9205 1.07278
-19.2203 -10.6137 1.44573
-19.1268 -10.7058 -2.35887
-17.0775 -10.6504 -2.16318
-19.3282 -10.6417 -1.31731
-19.0543 -10.735 -0.957509
-17.8055 -10.8322 -0.947049
-19.3169 -10.6413 -0.862132
-17.9039 -10.8111 -0.831684
-16.9264 -10.8167 -0.10991
-20.3149 -10.3256 0.159781
-19.2948 -10.6678 0.289522
-16.7651 -10.643 0.334925
-17.607 -10.3807 0.333611
-19.0321 -10.7485 -1.9343
-18.7652 -10.8105 -1.82362
-17.3231 -10.7707 -0.704875
-18.1989 -10.6871 -0.209636
-18.1698 -10.0416 1.64424
-17.4003 -8.92368 1.64272
-17.5339 -10.6732 -2.4696
-18.7076 -10.8358 -2.39359
-19.2089 -10.6693 -0.793986
-17.0927 -10.8581 -0.045971
-19.54 -10.5772 0.693399
-18.645 -10.3674 -0.517813
-17.47 -10.7202 0.184516
-16.7795 -10.6295 0.52873
-19.2423 -10.6498 -0.77553
-17.5008 -10.8111 -0.042927
-16.7491 -8.77048 1.38392
-17.093 -8.84786 0.812213
-19.4838 -10.5926 -2.01907
-19.2039 -10.6832 -2.05212
-18.9457 -10.7781 -2.10292
-19.9054 -10.4621 -1.03791
-19.0595 -10.7359 -1.58251
-19.4025 -10.6271 -1.07832
-19.8235 -10.4869 -0.657291
-19.8206 -10.4874 -0.646052
-19.4772 -10.6135 -0.633509
-18.9861 -10.7526 -1.02221
-18.9354 -10.7663 -1.04225
-20.2534 -10.347 0.088486
-19.1795 -10.7011 -0.827672
-17.253 -10.5708 -2.18747
-17.2535 -10.5761 -2.17514
-19.8476 -10.4714 0.202627
-16.395 -11.0501 -2.06211
-17.8612 -10.8226 -0.909288
-17.8899 -10.8139 -0.731338
-19.8828 -10.4649 0.868989
-19.1902 -10.6754 0.40006
-19.9514 -10.4309 1.00332
-17.8059 -10.8036 -0.626642
-20.1423 -10.3943 1.20838
-17.7974 -10.7182 -0.460252
-17.7878 -10.7166 -0.451143
-18.2589 -10.6966 -0.044185
-17.2143 -10.8195 -0.655008
-19.1685 -10.6925 0.81587
-18.4338 -10.1157 0.363088
-17.8931 -10.8128 -0.047475
-18.435 -10.1165 0.54463
-18.184 -10.1873 0.407074
-19.5961 -10.4036 1.53866
-18.0047 -10.2555 0.387687
-17.2124 -10.8236 -0.128858
-16.6325 -10.7264 -0.363727
-16.7349 -10.79 -0.286727
-16.8501 -10.8378 -0.190781
-16.0926 -11.1636 -0.650056
-15.582 -11.4803 -0.580897
-17.1947 -10.5104 0.544155
-16.4708 -8.90775 1.17325
-20.3098 -10.3269 -1.65135
-18.9944 -10.7725 -2.52844
-18.9387 -10.7766 -2.1321
-18.7989 -10.8156 -2.17229
-18.4945 -10.901 -2.23734
-19.8341 -10.4874 -0.610717
-20.3594 -10.3073 0.086494
-19.2303 -10.6741 -0.869482
-19.3966 -10.6308 -0.671465
-19.5827 -10.5599 -0.4231
-19.7098 -10.5153 -0.201493
-20.0565 -10.393 0.229249
-17.2887 -10.6441 -1.88199
-16.7875 -10.9353 -2.07331
-20.3789 -10.3012 0.788752
-19.4042 -10.6264 0.125587
-17.7579 -10.8439 -0.947545
-16.8058 -10.9283 -1.67224
-20.0578 -10.3931 0.915251
-15.9451 -11.0328 -2.1601
-19.3757 -10.6544 0.453372
-18.734 -10.2265 0.129778
-15.8681 -11.0453 -2.02716
-18.2478 -10.6915 -0.061546
-19.3518 -10.6328 0.9008
-19.6132 -10.5462 1.20319
-18.4226 -10.1124 0.350789
-16.7811 -10.9331 -0.864422
-18.3183 -10.1457 0.353777
-17.2903 -10.7965 -0.215753
-17.1117 -10.8501 -0.268401
-16.7345 -10.8573 -0.345449
-16.6921 -10.7897 -0.376166
-16.8894 -10.8668 -0.211888
-16.6709 -10.7574 -0.327709
-16.0518 -11.152 -0.743878
-16.9719 -10.7534 0.093125
-15.6437 -11.4927 -0.54131
-15.6082 -11.4765 -0.557676
-15.5782 -11.4302 -0.505309
-17.3073 -8.9769 1.07724
-16.4442 -8.91513 0.974423
-16.5537 -8.88113 1.27045
-16.7474 -8.16191 1.67266
-20.132 -10.386 -1.11568
-18.7205 -10.8456 -2.39106
-19.1205 -10.7242 -1.91
-18.2824 -10.9736 -2.40838
-18.2634 -10.9843 -2.37128
-19.831 -10.488 -0.529205
-18.8644 -10.7974 -1.21673
-18.965 -10.7604 -0.997818
-19.7117 -10.522 -0.31364
-19.133 -10.7133 -0.78939
-19.0844 -10.7141 -0.795137
-19.5719 -10.5682 -0.168451
-15.9421 -11.0319 -2.58052
-20.3348 -10.3104 0.904881
-17.8778 -10.8 -0.976405
-16.9626 -10.8738 -1.39257
-16.0555 -10.9652 -2.06884
-19.5961 -10.5609 0.623196
-19.6622 -10.5386 0.675506
-16.1136 -10.9736 -2.015
-19.8965 -10.4714 0.906577
-20.0812 -10.4111 1.19368
-15.284 -11.2621 -2.1825
-19.205 -10.6791 0.792515
-19.9026 -10.457 1.39259
-19.9062 -10.4439 1.4043
-16.7732 -10.9192 -0.812505
-18.1947 -10.1846 0.390212
-19.2223 -10.6718 1.29405
-17.1665 -10.8266 -0.194482
-16.6813 -11.027 -0.524773
-16.6762 -10.7833 -0.390953
-16.048 -11.1625 -0.716765
-17.0173 -10.7981 0.095071
-17.0286 -10.7958 0.117324
-16.0362 -11.1823 -0.559424
-17.0364 -10.7644 0.144704
-16.0056 -11.1812 -0.570662
-16.9915 -10.7225 0.165812
-15.5889 -11.4586 -0.554818
-15.8975 -10.9235 0.425556
-16.5689 -8.87024 0.909772
-18.0189 -11.0671 -2.57195
-18.735 -10.8418 -1.83315
-19.4108 -10.6079 -0.843368
-18.9246 -10.7812 -1.06472
-18.9545 -10.772 -1.027
-18.9905 -10.7478 -0.951466
-19.0446 -10.7492 -0.841011
-19.048 -10.7448 -0.67173
-16.9924 -10.6706 -2.16506
-20.0719 -10.3805 0.249234
-20.2559 -10.3373 0.453298
-20.3687 -10.3107 0.835774
-19.7891 -10.5106 0.470778
-19.9969 -10.4237 0.662755
-16.114 -10.9914 -2.09258
-15.8855 -11.0034 -2.19189
-17.9428 -10.7772 -0.528199
-20.113 -10.3974 1.19623
-17.1446 -10.8231 -0.768231
-16.1909 -10.9309 -1.31785
-16.1719 -11.1017 -1.09797
-17.1487 -10.8239 -0.240291
-19.3948 -10.609 1.40942
-17.0092 -10.8734 -0.196207
-17.1246 -10.8403 -0.050203
-16.7101 -10.7832 -0.323703
-17.57 -10.3858 0.386633
-15.553 -11.5192 -0.904117
-17.2169 -8.93604 1.29322
-19.479 -10.608 -1.82595
-19.536 -10.5873 -1.62784
-18.9601 -10.7624 -1.94339
-19.4206 -10.6333 -1.06789
-19.8279 -10.4871 -0.467149
-18.9215 -10.7795 -1.09689
-18.9976 -10.752 -0.980907
-19.2538 -10.6676 0.280211
-18.0742 -10.7546 -0.449166
-17.2122 -10.8128 -0.927667
-19.8446 -10.4598 1.11161
-16.5517 -10.9619 -1.35203
-17.244 -10.7879 -0.746237
-15.3316 -11.2822 -2.17259
-15.2947 -11.3271 -2.08107
-17.1358 -10.847 -0.513425
-17.1427 -10.8291 -0.405821
-17.3224 -10.7679 -0.215299
-18.0708 -10.2345 0.481082
-16.6549 -10.771 -0.396241
-19.1996 -10.5365 1.52732
-17.1051 -10.7083 0.250831
-16.0705 -11.1634 -0.396826
-17.0108 -10.6577 0.246445
-18.7851 -9.87997 1.58222
-16.8911 -8.74759 1.37881
-19.4572 -10.6162 -1.85903
-18.7707 -10.8142 -2.34652
-20.0956 -10.405 -1.03148
-20.2525 -10.3493 -0.828044
-18.8783 -10.7929 -1.12355
-18.629 -10.8677 -1.32332
-19.0393 -10.7418 -0.959851
-20.1301 -10.3638 0.920253
-17.9113 -10.7915 -0.565139
-15.2701 -11.3449 -2.28438
-16.5522 -10.9973 -1.3107
-16.5966 -10.7211 -0.235691
-18.5555 -10.0505 1.21026
-18.7837 -9.88777 1.43226
-19.3185 -10.6439 -1.31975
-18.8018 -10.7979 -1.23793
-20.2506 -10.3445 0.065225
-17.2281 -10.5717 -2.25798
-17.4982 -10.8702 -1.33288
-19.2615 -10.5895 1.45339
-17.385 -10.6336 0.174919
-17.4064 -10.5533 0.281088
-18.9374 -10.7725 -2.03902
-18.9632 -10.7731 -1.10708
-18.7322 -10.1788 0.183234
-17.3086 -10.7809 -0.163009
-20.0388 -10.4348 -0.119256
-18.7141 -9.99364 0.914247
-15.565 -11.5157 -0.690495
-17.43 -10.7831 -2.26049
-17.716 -10.8569 -1.27522
-17.1087 -10.6989 -1.64715
-16.4372 -11.0615 -1.75727
-17.19 -10.8187 -0.019716
-16.9854 -8.87931 1.39823
-15.4787 -11.2182 -1.97608
-19.1976 -10.6948 -0.752192
-20.096 -10.4084 -1.8452
-19.6562 -10.5437 -1.347
-19.8334 -10.4865 -0.591137
-19.9957 -10.4338 0.172741
-19.7925 -10.511 0.1376
-19.0597 -10.7406 -2.43219
-19.8443 -10.4699 0.658122
-18.861 -10.8069 -2.26588
-18.8716 -10.7993 -1.86731
-19.7023 -10.5411 1.19424
-19.1262 -10.7207 -0.772687
-18.7906 -10.8193 -1.84138
-18.7668 -10.8344 -1.80808
-18.9874 -10.7524 -1.0208
-18.7581 -10.8363 -1.80086
-18.7962 -10.8247 -1.62416
-18.7839 -10.8242 -1.63238
-18.4821 -10.9226 -2.56277
-19.1907 -10.6764 0.400319
-18.6128 -10.8829 -1.56594
-18.283 -10.9801 -2.37072
-18.0195 -11.0586 -2.82975
-18.0014 -11.0693 -2.83944
-17.9878 -11.0696 -2.83483
-18.1236 -10.6774 -1.137
-17.8418 -10.6316 -1.5096
-18.4338 -10.1165 0.543638
-18.2573 -10.6954 -0.046239
-17.6812 -10.8201 -1.82749
-17.888 -10.8137 -0.733895
-17.876 -10.7907 -0.608966
-17.8266 -10.7105 -0.459093
-17.2059 -10.8215 -0.673624
-17.2116 -10.8241 -0.129519
-17.205 -10.825 -0.148464
-16.7831 -10.9204 -0.828528
-16.9684 -10.8871 -0.219169
-16.6175 -10.9592 -1.28338
-17.1937 -10.5105 0.542739
-16.6429 -11.0178 -0.530397
-16.7387 -10.7624 -0.26044
-15.5944 -11.5195 -0.740965
-15.6005 -11.4614 -0.528192
-16.4697 -8.90853 1.17251
-16.4595 -8.79397 1.67163
-20.2368 -10.3459 -1.55748
-20.5312 -10.2532 0.790172
-20.2491 -10.3465 0.115344
-19.713 -10.5223 -1.67121
-20.3051 -10.3285 0.81822
-19.6597 -10.546 -1.54931
-19.66 -10.5508 -1.52933
-19.624 -10.5497 -1.34868
-19.4875 -10.6025 -1.69491
-19.9886 -10.4446 0.276408
-19.2165 -10.6931 -2.34194
-19.7313 -10.5374 -0.057485
-19.283 -10.6801 -1.62746
-19.3652 -10.6454 -1.30357
-19.9326 -10.4422 0.922306
-18.9565 -10.778 -2.12704
-18.9578 -10.7626 -2.00564
-18.8276 -10.8107 -2.17555
-19.1256 -10.717 -0.844142
-19.1012 -10.7253 -0.676882
-18.5896 -10.8751 -1.3254
-18.3389 -10.9655 -2.15102
-18.7525 -10.2357 0.132681
-18.7453 -10.2542 0.11028
-18.3935 -10.9389 -1.31256
-18.7279 -10.2485 0.110205
-18.3847 -10.6501 -0.327749
-17.6046 -10.6827 -2.30837
-17.961 -10.7841 -0.471233
-17.9409 -10.7713 -0.495274
-17.2543 -10.5597 -2.26332
-17.6971 -10.8814 -0.106414
-16.8397 -10.7546 -2.58663
-17.7789 -10.3177 0.377479
-18.1544 -9.97061 1.66962
-16.646 -10.9607 -1.27483
-16.9933 -10.7366 0.141215
-16.7523 -10.8827 -0.402939
-16.107 -10.9744 -2.01955
-16.6627 -10.7479 -0.354078
-15.868 -11.0436 -2.02576
-15.983 -11.1903 -0.261517
-15.6372 -11.4929 -0.41409
-15.5892 -11.456 -0.549164
-16.4517 -8.91347 1.14759
-16.1328 -8.99746 1.15682
-20.3538 -10.3192 -0.212436
-20.2115 -10.3742 -0.731244
-20.1369 -10.4005 -0.965424
-20.2288 -10.3537 0.039082
-19.9587 -10.4921 -0.996131
-20.3824 -10.2966 0.768204
-20.3203 -10.3241 0.553732
-20.2625 -10.3369 0.547079
-19.6444 -10.5483 -1.35823
-19.496 -10.6038 -1.7688
-19.5029 -10.6021 -1.6665
-19.5175 -10.6016 -1.6156
-19.8386 -10.4898 -0.421588
-19.4817 -10.6109 -1.63544
-19.1896 -10.6894 -2.37126
-19.9035 -10.4595 0.937183
-18.7156 -10.8533 -2.48572
-19.2957 -10.6586 -0.368072
-18.8039 -10.8158 -1.85787
-18.7833 -10.8278 -1.7278
-18.9674 -10.7585 -0.997372
-18.8609 -10.8005 -1.22541
-18.6752 -10.0378 0.482597
-18.6488 -10.0432 0.420608
-18.3946 -10.6545 -0.303258
-18.1728 -10.6546 -0.233505
-18.1949 -10.1858 0.474158
-17.2662 -10.5673 -2.19612
-17.4074 -10.6253 -1.29122
-17.0121 -10.6566 -2.23299
-17.5279 -10.9158 -0.396448
-16.8704 -10.9101 -1.57713
-17.02 -10.7924 0.11739
-16.9791 -10.7551 0.115545
-16.9684 -10.7749 0.090616
-16.7055 -10.7897 -0.321686
-16.6535 -10.7522 -0.377226
-16.6852 -10.9352 0.005297
-16.6191 -10.8297 -0.188875
-16.2201 -10.9537 -1.28671
-15.6239 -11.0702 -2.82471
-16.0283 -11.1872 -0.480451
-15.9095 -11.2227 -0.027473
-14.7622 -12.0873 -2.70639
-19.7838 -10.4973 -1.6567
-20.3654 -10.3018 0.760433
-19.8306 -10.4933 -0.310851
-19.1963 -10.6961 -2.20465
-19.3839 -10.6328 -1.10279
-19.0849 -10.7187 -1.92555
-18.9893 -10.7533 -1.9301
-19.3969 -10.629 0.105974
-19.0424 -10.7358 -1.02108
-18.9988 -10.752 -0.981136
-19.1469 -10.6849 -0.312369
-18.9641 -10.7491 -0.969507
-18.2968 -10.9743 -2.3548
-19.1384 -10.7059 0.529817
-18.6877 -10.0275 0.620612
-17.8237 -10.7402 -1.07603
-17.8532 -10.8131 -0.808397
-17.2707 -10.5963 -2.38231
-17.8064 -10.7786 -0.595296
-17.2487 -10.6214 -2.02289
-17.183 -10.6383 -2.07744
-17.9748 -10.263 0.568342
-17.2775 -10.739 -1.09604
-17.2436 -10.7829 -1.03148
-17.3596 -10.687 0.085546
-17.0777 -10.8602 -0.70517
-16.4033 -11.0462 -1.9156
-16.1364 -11.0815 -1.13738
-16.1318 -11.1431 -0.78699
-16.0202 -11.1384 -1.02236
-15.5855 -11.5093 -1.01369
-15.5418 -11.5231 -0.76996
-20.3103 -10.3321 -0.025296
-20.2197 -10.3509 0.612443
-19.8029 -10.4868 -0.558548
-19.849 -10.4883 -0.293438
-19.3707 -10.6328 -0.820248
-19.1036 -10.7261 -1.60357
-19.0743 -10.7327 -1.60394
-19.4014 -10.635 0.140781
-18.9921 -10.7492 -0.947454
-19.2467 -10.6725 0.199571
-18.5565 -10.8897 -2.12677
-18.5556 -10.8876 -2.09075
-18.0565 -11.0645 -2.55436
-18.4295 -10.0798 0.845837
-17.008 -10.6573 -2.19518
-17.2945 -10.7524 -1.10665
-17.2799 -10.7497 -1.15921
-17.2466 -10.8099 -0.70339
-17.2984 -10.7821 -0.450455
-17.1307 -10.8478 -0.516112
-17.0798 -10.8592 -0.1769
-16.0515 -11.1594 -0.794934
-15.2869 -11.3332 -2.28309
-15.3013 -11.3232 -2.07762
-15.9681 -11.1988 -0.047173
-15.5427 -11.4893 -1.09283
-20.3466 -10.3378 -0.089224
-20.1055 -10.4016 -0.903605
-19.4121 -10.6321 -1.10655
-19.0342 -10.7368 -0.949614
-19.2142 -10.6597 0.212459
-19.2965 -10.6615 0.814075
-17.8264 -10.6268 -1.91098
-18.2434 -10.6811 -0.152178
-18.2504 -10.6961 -0.070421
-18.5585 -10.0446 1.21285
-17.5193 -10.9197 -1.32221
-17.3254 -10.7764 -0.495585
-17.2441 -10.8017 -0.081503
-17.1509 -10.8443 -0.373045
-15.4856 -11.5434 -0.88753
-20.0878 -10.401 -1.60889
-20.2664 -10.3517 -0.66053
-19.7072 -10.524 -1.89787
-18.8606 -10.7919 -1.2066
-17.5413 -10.9058 -0.916899
-16.5483 -10.9912 -1.88895
-15.3722 -11.3682 -1.9504
-17.078 -10.8611 -0.03671
-15.4546 -11.4306 -1.77668
-18.6627 -10.0299 0.535684
-18.3359 -10.1357 0.426944
-17.1914 -10.6382 -1.72883
-16.9804 -10.8728 -0.094661
-18.6148 -10.3648 -0.173164
-17.5656 -10.8028 -2.02245
-18.5822 -10.0465 0.828131
-16.45 -11.0392 -1.91811
-18.0793 -10.8791 -1.94595
-17.7061 -10.8582 -0.274143
-17.4464 -10.8008 -0.772222
-20.5233 -10.2541 0.777697
-20.4514 -10.2753 0.753773
-20.2362 -10.3366 0.255213
-20.2489 -10.3469 0.115526
-20.0261 -10.4056 0.227385
-19.7574 -10.5021 -0.009775
-19.3815 -10.63 -1.12299
-18.6549 -10.04 0.481493
-19.1918 -10.6872 -0.862488
-19.1041 -10.7244 -1.04184
-18.4327 -10.1164 0.544107
-19.0598 -10.741 -2.43383
-18.8737 -10.8005 -1.86811
-18.2567 -10.695 -0.047094
-18.8365 -10.8228 -2.17495
-18.7885 -10.8198 -2.2012
-18.7741 -10.8192 -2.28904
-18.7253 -10.8388 -2.1495
-17.8872 -10.8133 -0.734716
-17.7657 -10.7251 -0.481452
-18.2855 -10.9791 -2.36996
-17.2111 -10.8235 -0.13044
-17.9863 -11.0711 -2.58773
-17.3027 -10.7856 -0.529904
-16.9604 -10.5835 0.414867
-16.6454 -11.0202 -0.545895
-15.6005 -11.4574 -0.530168
-15.5717 -11.4862 -1.54448
-15.5736 -11.4839 -1.61809
-20.2961 -10.3221 0.737037
-20.0364 -10.4002 0.252752
-19.7022 -10.5396 1.19193
-19.9968 -10.4341 0.171788
-20.3912 -10.3013 -1.4593
-20.3599 -10.314 -1.9323
-20.2626 -10.3434 -1.69575
-19.8346 -10.4846 -0.607829
-19.4662 -10.6036 -0.584631
-19.6566 -10.5445 -1.34592
-19.2482 -10.6682 -0.309057
-19.7073 -10.5214 -2.15888
-19.2192 -10.6797 -0.838041
-18.7445 -10.2517 0.105072
-18.4327 -10.1146 0.367913
-19.0547 -10.7284 -1.41781
-18.9074 -10.7815 -1.1445
-19.2421 -10.6858 -2.22509
-19.1263 -10.7202 -2.02596
-18.2538 -10.6902 -0.065011
-18.8237 -10.8157 -1.84496
-18.6554 -10.861 -1.58986
-18.8237 -10.8174 -2.17568
-18.8661 -10.8038 -2.36797
-18.7307 -10.8304 -2.10482
-17.9417 -10.7708 -0.490744
-17.9897 -10.7678 -0.791562
-18.4421 -10.9372 -2.52997
-18.2741 -10.9779 -2.35981
-18.2692 -10.982 -2.39148
-18.2537 -10.9782 -2.40033
-17.3892 -10.6823 0.113241
-18.2984 -10.9649 -2.72293
-17.0084 -10.7586 0.143312
-17.6072 -10.6692 -2.33667
-16.6877 -10.7921 -0.383633
-16.7847 -10.9237 -0.864597
-17.1176 -10.6049 -2.22625
-15.9546 -10.8954 0.36811
-16.0879 -11.1624 -0.672124
-15.585 -11.5192 -0.759729
-14.766 -12.0873 -2.91738
-20.5084 -10.2586 0.338925
-20.3215 -10.3242 0.553833
-20.2775 -10.3342 0.684514
-20.2518 -10.3401 0.161185
-20.2065 -10.3444 0.271583
-20.2181 -10.3457 0.232883
-20.0557 -10.3908 0.233462
-19.6188 -10.5583 0.649689
-19.7349 -10.5143 -0.40419
-19.9741 -10.4292 -2.07848
-19.461 -10.6075 -0.55734
-19.6405 -10.5479 -1.35514
-19.7799 -10.5064 -1.82421
-19.4217 -10.6231 -0.772098
-19.3723 -10.6309 -0.72844
-19.7091 -10.5196 -1.92208
-19.3433 -10.6405 -1.4989
-19.1355 -10.7073 -1.08253
-18.9978 -10.7557 -0.984678
-18.1902 -10.1635 1.11373
-19.0868 -10.7374 -2.1721
-18.121 -10.2085 0.522918
-18.5904 -10.8768 -1.39778
-18.4321 -10.9337 -1.31307
-18.0489 -10.7593 -0.383465
-17.9021 -10.6035 -1.58404
-17.2083 -10.8235 -0.153099
-16.9944 -10.7635 0.109865
-16.9897 -10.7979 0.085504
-17.2089 -10.8182 -0.676187
-17.4063 -10.624 -1.29119
-17.118 -10.8063 -1.05311
-16.7521 -10.7798 -0.213065
-17.0788 -10.7948 -1.38849
-16.6302 -10.7287 -0.355719
-16.7805 -10.9443 -1.66207
-16.0537 -10.9647 -2.0995
-20.1652 -10.3777 1.22714
-20.1421 -10.3706 0.885825
-20.3535 -10.3217 -0.212177
-20.2224 -10.3509 -0.020031
-20.5341 -10.2664 -1.1
-19.8848 -10.4601 0.771691
-20.0591 -10.3981 0.115233
-20.2084 -10.3785 -0.732974
-20.4007 -10.2994 -1.49235
-19.6458 -10.5439 0.569558
-19.8557 -10.4826 -0.609574
-19.8453 -10.4849 -0.650432
-19.9146 -10.4572 -1.05471
-20.0836 -10.4016 -1.63132
-19.4873 -10.5869 0.095222
-19.2571 -10.6674 0.695005
-19.3992 -10.6135 0.101786
-19.6944 -10.5427 -0.892489
-19.6709 -10.543 -0.888812
-19.6803 -10.5397 -1.49215
-19.344 -10.6542 -1.62374
-18.9707 -10.7605 -0.997539
-19.1144 -10.7228 -1.60686
-17.8786 -10.7921 -0.621001
-17.2167 -8.93489 1.2927
-17.5584 -10.9019 -0.441815
-18.0159 -11.068 -2.57639
-17.2166 -10.6282 -2.08254
-17.1867 -10.6305 -2.07645
-16.6076 -10.7583 -0.413716
-16.7113 -10.7958 -2.52858
-20.2734 -10.3321 0.289905
-19.4892 -10.5966 0.840301
-19.4507 -10.6059 0.874719
-19.863 -10.4801 -0.527516
-19.826 -10.4899 -0.509855
-19.6742 -10.5388 -0.058007
-19.7214 -10.5279 -0.289993
-20.0958 -10.4015 -1.60149
-19.5146 -10.6053 -1.62962
-19.2277 -10.6801 -0.85727
-19.3491 -10.6371 -1.2704
-19.1981 -10.6862 -0.853831
-18.5899 -10.0564 0.559536
-18.1824 -10.1747 1.25215
-19.0709 -10.7295 -1.42364
-19.1262 -10.7041 -2.35601
-17.612 -10.3816 0.442937
-17.9339 -10.7796 -1.0724
-17.2828 -10.7942 -0.710341
-17.166 -10.8456 -0.515791
-17.2691 -10.812 -0.891652
-17.2935 -10.7788 -0.997725
-17.2974 -10.7501 -1.10324
-17.0573 -10.86 -0.480174
-16.3438 -10.7817 0.498781
-15.9411 -10.9063 0.382663
-16.0099 -11.1838 -0.520672
-16.4638 -10.8734 -2.54215
-15.6676 -9.15 0.995191
-20.3298 -10.3222 0.126788
-20.0087 -10.4273 0.187592
-19.7316 -10.5172 0.044899
-19.8005 -10.4948 -0.31879
-19.3993 -10.627 0.146907
-19.4529 -10.5876 -0.248196
-19.4295 -10.6264 -0.6922
-19.0381 -10.7383 -1.00757
-18.3006 -10.6859 -0.131902
-17.6887 -10.8694 -0.815878
-17.5293 -10.9175 -0.622465
-17.0845 -10.8577 -0.618357
-16.46 -8.89643 1.20482
-16.3107 -10.7832 0.466124
-16.7561 -10.9944 -0.986295
-16.1564 -11.141 -0.891298
-15.9915 -11.0118 -2.53538
-18.5665 -10.0506 1.25937
-17.9506 -10.266 0.533897
-18.868 -10.7934 -2.45911
-17.9695 -10.7817 -1.06928
-17.8967 -10.587 -1.54144
-16.5914 -8.86873 0.899379
-16.0942 -10.9119 -2.25434
-20.3231 -10.3362 0.00721
-17.6178 -10.883 -0.775283
-18.7338 -10.0583 0.386415
-16.6135 -11.0116 -1.11993
-16.4722 -11.0279 -1.80759
-18.6212 -10.0477 0.617964
-18.5699 -10.064 0.381712
-17.926 -10.7299 -0.587688
-17.1122 -10.655 -2.18224
-17.426 -10.8125 -1.5471
-16.6365 -10.9134 -1.84746
-18.0583 -10.7574 -0.299862
-20.3192 -10.3147 0.753377
-20.2489 -10.3388 0.784927
-20.2968 -10.3219 0.738573
-20.2721 -10.3447 0.049139
-20.0522 -10.4255 -0.295707
-20.0359 -10.4346 -0.295761
-20.0546 -10.4166 -0.322447
-19.8909 -10.474 -0.310094
-19.3605 -10.6256 0.09336
-19.3256 -10.6395 0.052531
-19.9682 -10.4398 -0.550679
-19.6636 -10.5294 -0.42269
-16.4456 -8.80323 1.67421
-19.4929 -10.5835 -0.382801
-19.7013 -10.5211 -0.556707
-20.2555 -10.3473 -1.07012
-20.3337 -10.3212 -1.13099
-19.9635 -10.4372 -0.951795
-20.3302 -10.329 -1.23906
-20.3394 -10.3266 -1.25318
-20.23 -10.3595 -1.17535
-19.6055 -10.551 -0.720009
-20.1471 -10.3836 -1.23813
-20.3168 -10.3268 -1.36455
-20.0051 -10.4243 -1.14189
-20.3403 -10.3151 -1.4023
-20.3896 -10.306 -1.44981
-20.465 -10.2868 -1.5801
-19.1874 -10.7063 -0.66123
-19.885 -10.466 -1.19724
-19.8813 -10.465 -1.21016
-19.719 -10.5122 -1.12517
-17.5791 -10.3907 0.414257
-19.3862 -10.617 -0.959324
-19.1811 -10.7035 -0.829225
-20.4261 -10.2971 -1.78073
-20.3253 -10.3267 -1.72243
-19.1509 -10.6976 -1.09197
-19.2673 -10.659 -1.17965
-20.1661 -10.3694 -1.88243
-18.955 -10.7695 -1.0171
-18.9788 -10.7505 -1.04212
-20.1704 -10.3712 -2.06991
-19.092 -10.7247 -1.31447
-19.4774 -10.6193 -1.63277
-16.577 -10.6995 0.353492
-19.5533 -10.5916 -1.85045
-18.9081 -10.7675 -1.45606
-17.2109 -10.8224 -0.262872
-18.7296 -10.8236 -1.38208
-19.6746 -10.5245 -2.07368
-19.3574 -10.6498 -1.86022
-17.2117 -10.816 -0.411111
-19.4842 -10.5929 -2.01836
-19.4735 -10.5961 -2.03515
-19.5574 -10.5649 -2.09308
-16.8472 -10.8311 -0.206312
-18.7173 -10.832 -1.58077
-19.2189 -10.678 -2.00365
-19.1155 -10.7204 -1.93695
-19.2054 -10.6807 -2.05325
-18.6305 -10.8588 -1.6772
-18.8761 -10.7936 -1.86732
-18.7723 -10.8273 -1.80594
-16.5708 -10.7424 -0.42436
-19.3131 -10.6446 -2.46452
-16.8225 -10.9334 -0.775782
-18.6231 -10.8774 -2.14224
-18.5404 -10.8944 -2.1484
-18.4532 -10.925 -2.40303
-20.2591 -10.3372 0.550118
-20.5085 -10.2606 0.333896
-20.5238 -10.2581 -0.125186
-18.3871 -10.103 1.17944
-19.7677 -10.4994 -0.032368
-20.0793 -10.4088 -0.57032
-19.4754 -10.5928 -0.277285
-19.8322 -10.4856 -0.605319
-19.6901 -10.5256 -0.543653
-19.6781 -10.5232 -0.548237
-20.0509 -10.4135 -0.880504
-20.3761 -10.32 -1.16153
-20.2688 -10.3436 -1.10585
-20.4055 -10.2968 -1.32483
-20.2413 -10.3549 -1.20783
-20.1411 -10.3859 -1.17499
-19.6909 -10.526 -0.851821
-18.0668 -10.2323 0.292486
-18.5928 -10.3865 -0.117337
-20.3738 -10.3079 -1.45513
-19.3865 -10.6282 -0.752189
-19.4498 -10.6176 -0.852516
-18.2582 -10.6952 -0.046184
-19.1249 -10.7252 -0.684483
-18.2546 -10.6873 -0.120866
-19.1281 -10.7172 -0.81035
-20.3666 -10.3136 -1.72942
-19.1123 -10.7196 -0.814194
-19.1241 -10.718 -0.822497
-19.9574 -10.4424 -1.49351
-17.8927 -10.8112 -0.048138
-20.1035 -10.3971 -1.66383
-19.6183 -10.5483 -1.34181
-17.0717 -10.5352 0.362972
-17.3618 -10.702 0.080044
-17.5855 -10.8972 -0.161081
-19.6482 -10.5364 -1.71769
-17.903 -10.7438 -0.534368
-17.2664 -10.7909 -0.20413
-19.9663 -10.4386 -2.12614
-18.6544 -10.8567 -1.30058
-18.9412 -10.7565 -1.50804
-18.5606 -10.8917 -1.31482
-19.8084 -10.5026 -2.20521
-19.331 -10.6451 -1.87703
-18.949 -10.7575 -1.62232
-19.7106 -10.5252 -2.16262
-18.4321 -10.9312 -1.31321
-18.4539 -10.9173 -1.32433
-18.9407 -10.7832 -1.88761
-19.4878 -10.6037 -2.26078
-16.759 -10.9122 -0.439265
-16.7069 -10.8299 -0.393611
-18.9843 -10.7494 -2.09111
-16.6661 -11.0167 -0.528967
-16.6338 -11.0262 -0.531248
-18.9204 -10.7787 -2.14
-19.1872 -10.6939 -2.3784
-18.8084 -10.8177 -2.20548
-18.7964 -10.8166 -2.30762
-15.6225 -11.4762 -0.452629
-18.6057 -10.8869 -2.52548
