28.646200 18.254499 -22.607000 
28.957199 18.101601 -22.587000 
29.261400 17.967600 -22.577000 
29.563000 17.811300 -22.566999 
29.843300 17.743000 -22.556999 
30.109900 17.712400 -22.556999 
30.386700 17.653500 -22.547001 
30.622499 17.707399 -22.547001 
30.877899 17.736500 -22.547001 
31.124001 17.762199 -22.537001 
31.362301 17.838301 -22.537001 
31.615200 17.845200 -22.537001 
31.822800 18.005899 -22.537001 
32.041401 18.106800 -22.537001 
32.249001 18.267500 -22.547001 
32.490799 18.334200 -22.547001 
32.677799 18.551201 -22.547001 
32.868301 18.758900 -22.556999 
33.055302 18.976000 -22.566999 
33.249199 19.174200 -22.566999 
33.477299 19.278500 -22.566999 
33.730202 19.285500 -22.566999 
33.958199 19.389700 -22.566999 
34.159000 19.569201 -22.566999 
34.356300 19.758101 -22.577000 
34.515900 20.050301 -22.587000 
34.654202 20.430599 -22.597000 
45.679501 1.074070 -21.566999 
45.561699 0.637457 -21.547001 
45.869900 1.281730 -21.566999 
46.056999 1.498800 -21.577000 
46.338902 1.367310 -21.566999 
46.595200 1.364820 -21.556999 
46.828499 1.396500 -21.556999 
47.088200 1.384620 -21.556999 
47.321400 1.416300 -21.547001 
47.581200 1.404410 -21.547001 
47.824600 1.407900 -21.547001 
48.021900 1.596770 -21.547001 
48.250900 1.669460 -21.547001 
48.497799 1.663550 -21.547001 
48.723301 1.745640 -21.547001 
48.945400 1.837120 -21.547001 
49.157299 1.956790 -21.547001 
49.379398 2.048270 -21.547001 
49.598099 2.149150 -21.547001 
49.844101 2.174850 -21.547001 
50.073101 2.247540 -21.547001 
50.354198 2.147670 -21.537001 
50.666901 1.931610 -21.517000 
50.959202 1.771930 -21.507000 
51.205200 1.797630 -21.507000 
51.428200 1.857500 -21.507000 
51.646900 1.958380 -21.507000 
51.889500 1.993480 -21.497000 
52.086800 2.182350 -21.507000 
52.308899 2.273830 -21.507000 
52.527599 2.374710 -21.507000 
52.718899 2.550770 -21.517000 
52.902500 2.777220 -21.517000 
53.086201 3.003680 -21.527000 
53.274101 3.189130 -21.537001 
53.488499 3.331020 -21.537001 
53.658401 3.595070 -21.547001 
53.765900 4.059870 -21.566999 
53.889702 4.509300 -21.577000 
53.583599 16.753000 -22.127001 
53.327301 16.755501 -22.136999 
53.893002 16.546301 -22.117001 
54.166401 16.496901 -22.107000 
54.483398 16.239799 -22.087000 
54.746601 16.218500 -22.087000 
55.010601 16.165600 -22.077000 
55.284000 16.116199 -22.066999 
55.516300 16.179399 -22.066999 
55.731602 16.289700 -22.077000 
55.939201 16.450399 -22.077000 
56.126202 16.667500 -22.087000 
56.315800 16.906700 -22.087000 
56.478001 17.221201 -22.097000 
56.647999 17.485201 -22.107000 
56.841900 17.683500 -22.117001 
56.989601 18.067200 -22.127001 
57.131302 18.438000 -22.146999 
-21.462000 1.314850 -22.907000 
-21.806400 1.530050 -22.927000 
-20.931299 0.646045 -22.867001 
-20.624500 0.534215 -22.857000 
-20.290400 0.347209 -22.847000 
-20.041800 0.395126 -22.847000 
-19.673500 0.114151 -22.827000 
-19.404400 0.105687 -22.816999 
-19.175400 0.178375 -22.816999 
-18.896000 0.141720 -22.816999 
-18.626900 0.133256 -22.806999 
-18.385201 0.199967 -22.806999 
-18.149401 0.253861 -22.806999 
-17.897301 0.292381 -22.806999 
-17.709400 0.477832 -22.806999 
-10.875900 -15.285600 -21.997000 
-11.231400 -15.010600 -22.017000 
-10.514400 -15.547800 -21.976999 
-10.187200 -15.716000 -21.966999 
-9.927440 -15.727900 -21.957001 
-9.643770 -15.805600 -21.947001 
-9.360100 -15.883200 -21.947001 
-9.131160 -15.810500 -21.947001 
-8.872290 -15.790800 -21.937000 
-8.609140 -15.812100 -21.937000 
-8.339150 -15.852200 -21.927000 
-8.089690 -15.835900 -21.927000 
-7.884680 -15.697400 -21.927000 
-7.666000 -15.596500 -21.927000 
-7.416530 -15.580200 -21.927000 
-7.214940 -15.432300 -21.927000 
-6.999680 -15.322100 -21.927000 
-6.804930 -15.155400 -21.937000 
-6.534940 -15.195500 -21.927000 
-6.295740 -15.151000 -21.927000 
-6.094150 -15.003100 -21.927000 
-5.923350 -14.770700 -21.937000 
-5.721760 -14.622800 -21.937000 
-5.557800 -14.371600 -21.947001 
-5.383580 -14.148600 -21.957001 
-5.199100 -13.953700 -21.957001 
-5.082150 -13.602500 -21.976999 
-4.942130 -13.285500 -21.987000 
-4.808950 -12.949700 -21.997000 
-4.689450 -12.576300 -22.017000 
-4.542590 -12.278100 -22.027000 
-4.483790 -11.767200 -22.047001 
27.535200 19.318701 -22.917000 
27.153999 19.722700 -22.937000 
27.960800 18.792500 -22.886999 
28.289000 18.592699 -22.867001 
28.631599 18.323601 -22.847000 
28.974300 18.054600 -22.837000 
29.268200 17.948799 -22.827000 
29.563000 17.811300 -22.816999 
29.853600 17.714899 -22.806999 
30.127001 17.665400 -22.797001 
30.372999 17.691099 -22.797001 
30.618200 17.748400 -22.797001 
30.891600 17.698900 -22.787001 
31.147900 17.696400 -22.787001 
31.366600 17.797300 -22.787001 
31.625500 17.816999 -22.777000 
31.837299 17.936701 -22.777000 
32.055099 18.069201 -22.787001 
32.290901 18.123100 -22.787001 
32.498501 18.283800 -22.787001 
32.698299 18.494900 -22.797001 
32.889702 18.670900 -22.797001 
33.086102 18.891399 -22.806999 
33.276600 19.099100 -22.806999 
33.491001 19.240999 -22.816999 
33.716499 19.323000 -22.816999 
33.972801 19.320601 -22.806999 
34.172600 19.531601 -22.816999 
34.373402 19.711100 -22.816999 
34.539902 19.984600 -22.827000 
34.733799 20.182800 -22.837000 
46.068100 1.438990 -21.806999 
45.849400 1.338110 -21.806999 
46.307301 1.483490 -21.806999 
46.588402 1.383610 -21.797001 
46.817299 1.456300 -21.797001 
47.054001 1.478580 -21.797001 
47.293201 1.523080 -21.797001 
47.547001 1.498380 -21.787001 
47.806702 1.486500 -21.787001 
48.042500 1.540390 -21.787001 
48.247501 1.678860 -21.787001 
48.497799 1.663550 -21.777000 
48.706200 1.792620 -21.787001 
48.924900 1.893500 -21.787001 
49.150398 1.975580 -21.787001 
49.382801 2.038880 -21.787001 
49.573299 2.246540 -21.787001 
49.805599 2.309830 -21.787001 
50.042301 2.332110 -21.787001 
50.299500 2.298020 -21.777000 
50.639599 2.006780 -21.757000 
50.969398 1.743740 -21.747000 
51.230000 1.700240 -21.737000 
51.472698 1.735340 -21.737000 
51.688801 1.814000 -21.737000 
51.921200 1.877300 -21.737000 
52.132099 2.028580 -21.737000 
52.330299 2.185840 -21.737000 
52.531898 2.333700 -21.747000 
52.739399 2.494380 -21.747000 
52.920502 2.698630 -21.757000 
53.117802 2.887500 -21.757000 
53.315102 3.076370 -21.767000 
53.509899 3.243030 -21.767000 
53.683201 3.497680 -21.777000 
53.853199 3.761720 -21.787001 
53.935001 4.355530 -21.806999 
53.847599 16.700100 -22.367001 
53.545101 16.888000 -22.377001 
54.125301 16.609600 -22.357000 
54.420101 16.472200 -22.347000 
54.679798 16.460300 -22.337000 
54.961800 16.328800 -22.327000 
55.263500 16.172501 -22.316999 
55.495800 16.235800 -22.316999 
55.711102 16.346100 -22.316999 
55.945999 16.431601 -22.316999 
56.116001 16.695700 -22.327000 
56.313301 16.884501 -22.327000 
56.482300 17.180201 -22.347000 
56.689899 17.340900 -22.347000 
56.845299 17.674101 -22.357000 
57.041698 17.894600 -22.367001 
57.197102 18.227800 -22.377001 
57.286701 18.771200 -22.157000 
57.355900 18.551701 -22.386999 
57.416401 19.233500 -22.177000 
57.487400 18.950701 -22.407000 
-20.998800 0.802373 -23.127001 
-21.520201 1.474600 -23.167000 
-20.593700 0.449642 -23.097000 
-20.263100 0.272034 -23.087000 
-20.024700 0.348142 -23.087000 
-19.697399 0.179930 -23.077000 
-19.421499 0.152672 -23.066999 
-19.128401 0.078429 -23.056999 
-18.889200 0.122926 -23.056999 
-18.657700 0.217828 -23.056999 
-18.421900 0.271722 -23.056999 
-18.139099 0.225670 -23.047001 
-17.904200 0.311175 -23.047001 
-17.692301 0.430848 -23.056999 
-17.256500 -0.006455 -22.777000 
-17.481400 0.582131 -23.056999 
-10.528100 -15.510200 -22.216999 
-10.906700 -15.201000 -22.237000 
-10.230800 -15.625500 -22.207001 
-9.937700 -15.699700 -22.197001 
-9.677970 -15.711600 -22.197001 
-9.390880 -15.798600 -22.187000 
-9.144840 -15.772900 -22.187000 
-8.858610 -15.828400 -22.177000 
-8.605720 -15.821500 -22.177000 
-8.349410 -15.824000 -22.167000 
-8.106790 -15.788900 -22.167000 
-7.881260 -15.706800 -22.167000 
-7.648890 -15.643500 -22.167000 
-7.419950 -15.570800 -22.167000 
-7.180740 -15.526300 -22.167000 
-6.965480 -15.416000 -22.167000 
-6.784410 -15.211800 -22.167000 
-6.521260 -15.233100 -22.167000 
-6.323100 -15.075800 -22.167000 
-6.111250 -14.956100 -22.177000 
-5.902830 -14.827100 -22.177000 
-5.718340 -14.632200 -22.177000 
-5.530440 -14.446800 -22.187000 
-5.380160 -14.158000 -22.197001 
-5.239270 -13.872600 -22.207001 
-5.106090 -13.536800 -22.216999 
-4.972910 -13.201000 -22.237000 
-4.819210 -12.921500 -22.247000 
-4.675770 -12.613900 -22.257000 
-4.610130 -12.121800 -22.277000 
-4.473530 -11.795400 -22.287001 
-4.401910 -11.290400 -22.066999 
-4.330090 -11.487800 -22.297001 
27.503599 19.434799 -23.167000 
27.168600 19.653500 -23.177000 
27.940300 18.848900 -23.136999 
28.251301 18.695999 -23.117001 
28.604300 18.398800 -23.097000 
28.950399 18.120399 -23.087000 
29.251101 17.995800 -23.077000 
29.563000 17.811300 -23.056999 
29.857000 17.705500 -23.047001 
30.137199 17.637199 -23.037001 
30.379801 17.672300 -23.037001 
30.636200 17.669800 -23.037001 
30.889000 17.676701 -23.027000 
31.120501 17.771601 -23.027000 
31.383699 17.750299 -23.027000 
31.622900 17.794800 -23.027000 
31.847601 17.908501 -23.027000 
32.072201 18.022200 -23.027000 
32.279800 18.182899 -23.027000 
32.522400 18.218000 -23.027000 
32.726601 18.388100 -23.037001 
32.923901 18.577000 -23.037001 
33.114300 18.784599 -23.047001 
33.301399 19.001699 -23.047001 
33.505501 19.171801 -23.056999 
33.754101 19.219700 -23.056999 
33.972801 19.320601 -23.056999 
34.183800 19.471800 -23.056999 
34.394798 19.623100 -23.056999 
34.567299 19.909401 -23.066999 
34.733799 20.182800 -23.077000 
34.878899 20.544300 -22.847000 
34.806198 20.773199 -23.107000 
46.300400 1.502280 -22.047001 
46.085201 1.392010 -22.047001 
46.556801 1.499800 -22.047001 
46.772900 1.578460 -22.047001 
47.057400 1.469190 -22.037001 
47.303501 1.494890 -22.037001 
47.549500 1.520590 -22.027000 
47.786201 1.542880 -22.027000 
48.011700 1.624960 -22.027000 
48.244099 1.688250 -22.027000 
48.452499 1.817320 -22.027000 
48.713100 1.773830 -22.027000 
48.928299 1.884100 -22.027000 
49.160702 1.947390 -22.027000 
49.372601 2.067070 -22.027000 
49.615200 2.102170 -22.027000 
49.840698 2.184250 -22.027000 
50.052502 2.303920 -22.027000 
50.291801 2.348420 -22.027000 
50.577202 2.207540 -22.007000 
50.885601 2.032480 -21.997000 
51.171001 1.891600 -21.987000 
51.466702 1.722520 -21.976999 
51.692200 1.804610 -21.976999 
51.941700 1.820910 -21.966999 
52.129601 2.006370 -21.976999 
52.337101 2.167050 -21.976999 
52.569500 2.230340 -21.976999 
52.742901 2.484990 -21.987000 
52.937599 2.651640 -21.987000 
53.152901 2.761920 -21.997000 
53.350201 2.950790 -21.997000 
53.513302 3.233630 -22.007000 
53.679798 3.507070 -22.017000 
53.849701 3.771120 -22.027000 
53.931599 4.364920 -22.056999 
54.079102 16.795000 -22.607000 
53.777500 16.951300 -22.617001 
54.367100 16.676300 -22.597000 
54.634499 16.614100 -22.587000 
54.881401 16.608101 -22.587000 
55.172798 16.480101 -22.577000 
55.443699 16.408400 -22.566999 
55.689701 16.434099 -22.566999 
55.915199 16.516199 -22.566999 
56.115101 16.727301 -22.566999 
56.308998 16.925501 -22.577000 
56.502899 17.123800 -22.587000 
56.686501 17.350300 -22.587000 
56.876099 17.589500 -22.597000 
57.049400 17.844200 -22.607000 
57.232201 18.102301 -22.617001 
57.384201 18.444901 -22.627001 
57.507900 18.894300 -22.646999 
-21.067200 0.990311 -23.377001 
-21.496201 1.408820 -23.407000 
-20.624500 0.534215 -23.347000 
-20.249399 0.234446 -23.327000 
-19.997299 0.272966 -23.327000 
-19.704300 0.198723 -23.316999 
-19.387300 0.058702 -23.306999 
-19.104500 0.012650 -23.306999 
-18.855000 0.028957 -23.297001 
-18.620100 0.114462 -23.297001 
-18.381701 0.190570 -23.297001 
-18.118601 0.169289 -23.297001 
-17.897301 0.292381 -23.297001 
-17.699200 0.449641 -23.297001 
-17.454000 0.506956 -23.297001 
-10.565700 -15.406800 -22.466999 
-10.913500 -15.182200 -22.476999 
-10.234200 -15.616100 -22.447001 
-9.954800 -15.652700 -22.447001 
-9.688230 -15.683400 -22.437000 
-9.404570 -15.761100 -22.427000 
-9.131160 -15.810500 -22.427000 
-8.872290 -15.790800 -22.417000 
-8.612560 -15.802700 -22.417000 
-8.352830 -15.814600 -22.407000 
-8.117050 -15.760700 -22.407000 
-7.891520 -15.678600 -22.407000 
-7.669420 -15.587100 -22.407000 
-7.419950 -15.570800 -22.407000 
-7.194420 -15.488700 -22.407000 
-6.979160 -15.378400 -22.407000 
-6.753630 -15.296400 -22.407000 
-6.514420 -15.251900 -22.407000 
-6.299160 -15.141600 -22.407000 
-6.111250 -14.956100 -22.417000 
-5.913090 -14.798900 -22.417000 
-5.704660 -14.669800 -22.417000 
-5.537280 -14.428000 -22.427000 
-5.404100 -14.092200 -22.437000 
-5.259790 -13.816200 -22.447001 
-5.102670 -13.546100 -22.457001 
-4.969490 -13.210300 -22.476999 
-4.819210 -12.921500 -22.487000 
-4.668930 -12.632700 -22.497000 
-4.542590 -12.278100 -22.507000 
-4.453010 -11.851800 -22.527000 
-4.292460 -11.591100 -22.537001 
27.891600 19.011999 -23.386999 
27.438601 19.613400 -23.417000 
28.227400 18.761801 -23.367001 
28.576900 18.474001 -23.347000 
28.916201 18.214399 -23.337000 
29.240900 18.023899 -23.316999 
29.552799 17.839500 -23.306999 
29.833000 17.771200 -23.297001 
30.113300 17.702999 -23.287001 
30.403799 17.606501 -23.277000 
30.653299 17.622801 -23.277000 
30.902700 17.639099 -23.277000 
31.151300 17.687000 -23.277000 
31.404200 17.694000 -23.267000 
31.628901 17.807600 -23.267000 
31.851000 17.899099 -23.267000 
32.072201 18.022200 -23.277000 
32.301201 18.094900 -23.267000 
32.515598 18.236799 -23.277000 
32.750500 18.322300 -23.277000 
32.937500 18.539400 -23.277000 
33.121201 18.765800 -23.287001 
33.297901 19.011101 -23.297001 
33.529400 19.106001 -23.297001 
33.743801 19.247900 -23.297001 
33.983101 19.292400 -23.297001 
34.217999 19.377899 -23.297001 
34.422100 19.547899 -23.306999 
34.612598 19.755600 -23.306999 
34.771400 20.079500 -23.316999 
34.837002 20.688601 -23.347000 
46.553299 1.509190 -22.287001 
46.290199 1.530480 -22.287001 
46.775398 1.600680 -22.287001 
47.035999 1.557180 -22.277000 
47.254700 1.658060 -22.277000 
47.543499 1.507780 -22.267000 
47.789600 1.533480 -22.267000 
48.015099 1.615570 -22.267000 
48.220100 1.754030 -22.267000 
48.484100 1.701140 -22.267000 
48.723301 1.745640 -22.257000 
48.969398 1.771340 -22.257000 
49.181198 1.891010 -22.257000 
49.396500 2.001290 -22.257000 
49.632301 2.055180 -22.257000 
49.857800 2.137270 -22.257000 
50.083302 2.219350 -22.257000 
50.309700 2.269830 -22.257000 
50.552299 2.304930 -22.257000 
50.799301 2.299020 -22.247000 
51.118900 2.064160 -22.237000 
51.452099 1.791720 -22.216999 
51.709301 1.757620 -22.207001 
51.921200 1.877300 -22.216999 
52.139801 1.978170 -22.216999 
52.333698 2.176440 -22.216999 
52.538700 2.314910 -22.226999 
52.749699 2.466190 -22.226999 
52.962399 2.554250 -22.226999 
53.146000 2.780710 -22.237000 
53.356998 2.932000 -22.237000 
53.530399 3.186650 -22.247000 
53.717400 3.403710 -22.247000 
53.880501 3.686550 -22.257000 
53.984600 4.160750 -22.277000 
54.006401 17.024000 -22.857000 
53.763000 17.020500 -22.867001 
54.322601 16.798500 -22.847000 
54.600300 16.708000 -22.837000 
54.863499 16.686701 -22.837000 
55.120602 16.652599 -22.827000 
55.394001 16.603201 -22.816999 
55.647800 16.578501 -22.816999 
55.873299 16.660601 -22.816999 
56.115101 16.727301 -22.816999 
56.316700 16.875099 -22.816999 
56.509701 17.105000 -22.827000 
56.700199 17.312700 -22.827000 
56.883801 17.539101 -22.837000 
57.074200 17.746799 -22.847000 
57.274101 17.957899 -22.847000 
57.422600 18.309900 -22.867001 
57.577999 18.643200 -22.877001 
57.718899 19.045601 -22.646999 
57.765099 18.860201 -22.877001 
-21.094601 1.065490 -23.627001 
-21.547501 1.549770 -23.657000 
-20.665600 0.646978 -23.607000 
-20.280199 0.319018 -23.577000 
-19.966600 0.188394 -23.566999 
-19.659800 0.076563 -23.556999 
-19.373600 0.021115 -23.556999 
-19.104500 0.012650 -23.547001 
-18.858400 0.038354 -23.547001 
-18.613199 0.095668 -23.547001 
-18.357800 0.124791 -23.537001 
-18.108299 0.141098 -23.537001 
-17.887100 0.264190 -23.537001 
-17.688900 0.421451 -23.547001 
-17.477900 0.572734 -23.547001 
-10.610200 -15.284700 -22.707001 
-10.940900 -15.107100 -22.726999 
-10.288900 -15.465700 -22.697001 
-9.988140 -15.590400 -22.687000 
-9.695080 -15.664600 -22.677000 
-9.414830 -15.732900 -22.667000 
-9.172200 -15.697800 -22.667000 
-8.875710 -15.781400 -22.657000 
-8.629660 -15.755700 -22.657000 
-8.373360 -15.758200 -22.657000 
-8.147830 -15.676100 -22.657000 
-7.891520 -15.678600 -22.646999 
-7.642050 -15.662300 -22.646999 
-7.450730 -15.486200 -22.646999 
-7.235460 -15.376000 -22.657000 
-6.989420 -15.350300 -22.646999 
-6.763890 -15.268200 -22.646999 
-6.531520 -15.204900 -22.646999 
-6.299160 -15.141600 -22.646999 
-6.077050 -15.050100 -22.646999 
-5.902830 -14.827100 -22.657000 
-5.701240 -14.679200 -22.657000 
-5.530440 -14.446800 -22.667000 
-5.397260 -14.111000 -22.677000 
-5.263220 -13.806800 -22.687000 
-5.153980 -13.405200 -22.707001 
-5.007110 -13.107000 -22.716999 
-4.860250 -12.808800 -22.726999 
-4.713390 -12.510600 -22.737000 
-4.589610 -12.178200 -22.757000 
-4.466690 -11.814200 -22.767000 
27.881300 19.040199 -23.636999 
27.427500 19.673201 -23.667000 
28.213699 18.799400 -23.617001 
28.570101 18.492800 -23.597000 
28.918699 18.236601 -23.577000 
29.223801 18.070900 -23.566999 
29.552799 17.839500 -23.547001 
29.833000 17.771200 -23.547001 
30.123501 17.674801 -23.537001 
30.414101 17.578300 -23.527000 
30.673800 17.566401 -23.517000 
30.923201 17.582701 -23.517000 
31.155600 17.646000 -23.517000 
31.407600 17.684601 -23.517000 
31.636600 17.757200 -23.517000 
31.885201 17.805201 -23.507000 
32.107300 17.896601 -23.507000 
32.332001 18.010300 -23.517000 
32.536098 18.180401 -23.517000 
32.758202 18.271900 -23.517000 
32.927299 18.567600 -23.527000 
33.148499 18.690599 -23.527000 
33.335602 18.907700 -23.537001 
33.546501 19.059000 -23.537001 
33.747299 19.238501 -23.547001 
33.969398 19.329901 -23.547001 
34.214600 19.387300 -23.547001 
34.433201 19.488100 -23.547001 
34.612598 19.755600 -23.556999 
34.774799 20.070101 -23.566999 
34.843800 20.669800 -23.587000 
46.741199 1.694640 -22.527000 
46.564499 1.449390 -22.527000 
46.966801 1.776730 -22.527000 
47.234200 1.714440 -22.527000 
47.501598 1.652150 -22.517000 
47.771599 1.612080 -22.507000 
48.001400 1.653150 -22.507000 
48.261200 1.641270 -22.507000 
48.511501 1.625960 -22.497000 
48.723301 1.745640 -22.497000 
48.976200 1.752550 -22.497000 
49.184601 1.881620 -22.497000 
49.414501 1.922690 -22.497000 
49.625401 2.073980 -22.497000 
49.861198 2.127870 -22.497000 
50.073101 2.247540 -22.497000 
50.306301 2.279220 -22.497000 
50.555801 2.295530 -22.497000 
50.792400 2.317810 -22.487000 
51.066700 2.236730 -22.487000 
51.379501 2.020670 -22.466999 
51.674198 1.883200 -22.457001 
51.886101 2.002880 -22.457001 
52.121899 2.056770 -22.457001 
52.340599 2.157650 -22.457001 
52.531898 2.333700 -22.466999 
52.742901 2.484990 -22.466999 
52.979500 2.507270 -22.466999 
53.142601 2.790110 -22.476999 
53.346802 2.960190 -22.476999 
53.537201 3.167850 -22.487000 
53.731998 3.334510 -22.487000 
53.901901 3.598560 -22.497000 
53.946098 4.295730 -22.527000 
54.220901 17.165899 -23.107000 
53.956799 17.218700 -23.117001 
54.530201 16.959200 -23.097000 
54.814701 16.849899 -23.087000 
55.077900 16.828600 -23.077000 
55.334999 16.794500 -23.077000 
55.599098 16.741600 -23.066999 
55.851898 16.748600 -23.056999 
56.084301 16.811800 -23.056999 
56.323502 16.856300 -23.056999 
56.499401 17.133200 -23.066999 
56.679600 17.369101 -23.077000 
56.880402 17.548500 -23.077000 
57.081100 17.728001 -23.087000 
57.274101 17.957899 -23.097000 
57.439701 18.262899 -23.107000 
57.626801 18.480000 -23.107000 
57.810398 18.706499 -23.117001 
57.944401 19.127701 -22.886999 
57.969200 19.030300 -23.127001 
58.004902 19.809500 -22.917000 
58.138302 19.326000 -23.136999 
-21.125401 1.150060 -23.877001 
-21.482500 1.371230 -23.896999 
-20.658701 0.628184 -23.847000 
-20.269899 0.290827 -23.827000 
-19.987101 0.244775 -23.816999 
-19.673500 0.114151 -23.806999 
-19.387300 0.058702 -23.797001 
-19.101000 0.003253 -23.797001 
-18.831900 -0.005211 -23.787001 
-18.582500 0.011096 -23.787001 
-18.333900 0.059013 -23.787001 
-18.108299 0.141098 -23.787001 
-17.876801 0.236000 -23.787001 
-17.668400 0.365069 -23.787001 
-17.454000 0.506956 -23.787001 
-10.660600 -15.175300 -22.957001 
-10.951200 -15.078900 -22.966999 
-10.299200 -15.437500 -22.937000 
-10.005200 -15.543400 -22.927000 
-9.705340 -15.636400 -22.917000 
-9.407990 -15.751700 -22.907000 
-9.155100 -15.744800 -22.907000 
-8.905630 -15.728400 -22.907000 
-8.612560 -15.802700 -22.896999 
-8.387040 -15.720600 -22.896999 
-8.134150 -15.713700 -22.886999 
-7.850480 -15.791400 -22.886999 
-7.631790 -15.690500 -22.886999 
-7.406270 -15.608400 -22.886999 
-7.184160 -15.516900 -22.886999 
-6.934690 -15.500600 -22.877001 
-6.743370 -15.324600 -22.886999 
-6.558890 -15.129700 -22.896999 
-6.370980 -14.944300 -22.896999 
-6.131770 -14.899800 -22.896999 
-5.906250 -14.817700 -22.896999 
-5.708080 -14.660400 -22.896999 
-5.544120 -14.409200 -22.907000 
-5.397260 -14.111000 -22.917000 
-5.266640 -13.797400 -22.927000 
-5.164240 -13.377000 -22.947001 
-4.996850 -13.135200 -22.957001 
-4.849990 -12.837000 -22.966999 
-4.706550 -12.529300 -22.976999 
-4.593030 -12.168800 -22.997000 
-4.470110 -11.804800 -23.007000 
27.853100 19.146999 -23.886999 
27.452299 19.575800 -23.907000 
28.205999 18.849800 -23.867001 
28.569201 18.524401 -23.847000 
28.911900 18.255400 -23.827000 
29.257999 17.976999 -23.806999 
29.545900 17.858299 -23.797001 
29.836500 17.761801 -23.787001 
30.137199 17.637199 -23.777000 
30.417500 17.568899 -23.767000 
30.691700 17.487801 -23.757000 
30.954000 17.498199 -23.757000 
31.179600 17.580299 -23.757000 
31.425600 17.606001 -23.757000 
31.670799 17.663300 -23.757000 
31.892000 17.786400 -23.757000 
32.138100 17.812099 -23.757000 
32.355900 17.944599 -23.757000 
32.549801 18.142799 -23.757000 
32.750500 18.322300 -23.767000 
32.961498 18.473600 -23.767000 
33.163101 18.621401 -23.777000 
33.356098 18.851299 -23.777000 
33.581600 18.933399 -23.777000 
33.778900 19.122299 -23.787001 
34.017300 19.198400 -23.787001 
34.228199 19.349701 -23.787001 
34.432400 19.519800 -23.787001 
34.609200 19.764999 -23.797001 
34.789398 20.000900 -23.806999 
34.875500 20.553699 -23.827000 
46.994099 1.701550 -22.767000 
46.779701 1.559670 -22.767000 
47.234200 1.714440 -22.767000 
47.483700 1.730750 -22.757000 
47.740799 1.696650 -22.757000 
48.011700 1.624960 -22.747000 
48.250900 1.669460 -22.747000 
48.487499 1.691740 -22.737000 
48.716499 1.764430 -22.737000 
48.983898 1.702140 -22.737000 
49.201698 1.834630 -22.737000 
49.417000 1.944910 -22.737000 
49.663898 1.939000 -22.726999 
49.861198 2.127870 -22.737000 
50.079899 2.228750 -22.737000 
50.320000 2.241630 -22.737000 
50.576302 2.239150 -22.726999 
50.788101 2.358820 -22.737000 
51.041901 2.334120 -22.726999 
51.330700 2.183840 -22.716999 
51.601601 2.112150 -22.707001 
51.865601 2.059260 -22.697001 
52.128700 2.037980 -22.697001 
52.354198 2.120060 -22.697001 
52.549000 2.286720 -22.697001 
52.743698 2.453380 -22.707001 
52.944500 2.632850 -22.707001 
53.134899 2.840510 -22.716999 
53.336498 2.988380 -22.716999 
53.540600 3.158460 -22.716999 
53.731998 3.334510 -22.726999 
53.912201 3.570370 -22.737000 
53.987202 4.182960 -22.757000 
54.491699 17.094200 -23.347000 
54.182400 17.300800 -23.357000 
54.754902 17.072901 -23.337000 
55.015400 17.029400 -23.327000 
55.293098 16.938900 -23.316999 
55.559700 16.908199 -23.316999 
55.799801 16.921101 -23.316999 
56.035599 16.975000 -23.306999 
56.291901 16.972500 -23.306999 
56.509701 17.105000 -23.306999 
56.703602 17.303301 -23.316999 
56.911098 17.464001 -23.316999 
57.101601 17.671600 -23.327000 
57.253601 18.014299 -23.337000 
57.479099 18.096399 -23.337000 
57.651600 18.382601 -23.347000 
57.848900 18.571501 -23.357000 
57.996601 18.955099 -23.367001 
58.187000 19.162800 -23.377001 
-21.080900 1.027900 -24.117001 
-21.503099 1.427610 -24.146999 
-20.705700 0.728130 -24.097000 
-20.256201 0.253240 -24.066999 
-19.959700 0.169600 -24.056999 
-19.663200 0.085960 -24.047001 
-19.390699 0.068099 -24.047001 
-19.101000 0.003253 -24.037001 
-18.831900 -0.005211 -24.037001 
-18.582500 0.011096 -24.027000 
-18.333900 0.059013 -24.027000 
-18.078400 0.088136 -24.027000 
-17.839199 0.132634 -24.027000 
-17.654699 0.327481 -24.027000 
-17.447201 0.488162 -24.037001 
-10.664100 -15.165900 -23.197001 
-11.040100 -14.834600 -23.216999 
-10.347100 -15.306000 -23.187000 
-10.001800 -15.552800 -23.167000 
-9.712180 -15.617600 -23.167000 
-9.411410 -15.742300 -23.146999 
-9.155100 -15.744800 -23.146999 
-8.902210 -15.737800 -23.146999 
-8.605720 -15.821500 -23.136999 
-8.349410 -15.824000 -23.127001 
-8.089690 -15.835900 -23.127001 
-7.857320 -15.772600 -23.127001 
-7.645470 -15.652900 -23.127001 
-7.409690 -15.599000 -23.127001 
-7.218360 -15.422900 -23.127001 
-6.975740 -15.387800 -23.127001 
-6.743370 -15.324600 -23.127001 
-6.541780 -15.176700 -23.127001 
-6.329940 -15.057000 -23.127001 
-6.111250 -14.956100 -23.136999 
-5.909670 -14.808300 -23.136999 
-5.738870 -14.575800 -23.146999 
-5.561220 -14.362200 -23.146999 
-5.428040 -14.026400 -23.167000 
-5.311100 -13.675200 -23.177000 
-5.116350 -13.508600 -23.187000 
-4.959230 -13.238500 -23.197001 
-4.832890 -12.883900 -23.207001 
-4.740750 -12.435400 -23.226999 
-4.589610 -12.178200 -23.237000 
-4.456430 -11.842400 -23.247000 
27.867599 19.077801 -24.127001 
27.548901 19.281099 -24.146999 
28.205999 18.849800 -24.107000 
28.552099 18.571400 -24.097000 
28.864000 18.386900 -24.077000 
29.233999 18.042700 -24.056999 
29.559601 17.820700 -24.037001 
29.857000 17.705500 -24.027000 
30.137199 17.637199 -24.027000 
30.410601 17.587700 -24.017000 
30.666901 17.585199 -24.017000 
30.933500 17.554600 -24.007000 
31.203501 17.514500 -23.997000 
31.432400 17.587200 -23.997000 
31.681000 17.635099 -23.997000 
31.910000 17.707800 -23.997000 
32.131199 17.830900 -23.997000 
32.359299 17.935200 -23.997000 
32.567699 18.064199 -23.997000 
32.789001 18.187300 -24.007000 
32.972599 18.413799 -24.007000 
33.190399 18.546301 -24.017000 
33.367199 18.791500 -24.027000 
33.564499 18.980400 -24.027000 
33.772099 19.141100 -24.027000 
34.007000 19.226601 -24.027000 
34.232498 19.308701 -24.027000 
34.453800 19.431801 -24.037001 
34.640800 19.648800 -24.037001 
34.792801 19.991501 -24.056999 
34.948200 20.324699 -24.066999 
35.010399 20.943300 -23.847000 
35.013802 20.933901 -24.097000 
47.199100 1.840020 -23.007000 
46.994999 1.669940 -23.007000 
47.417801 1.940900 -23.007000 
47.720299 1.753030 -22.997000 
48.001400 1.653150 -22.987000 
48.240601 1.697650 -22.987000 
48.480701 1.710540 -22.976999 
48.716499 1.764430 -22.976999 
48.942001 1.846520 -22.976999 
49.198299 1.844030 -22.976999 
49.417000 1.944910 -22.976999 
49.650200 1.976590 -22.976999 
49.865501 2.086860 -22.976999 
50.094501 2.159550 -22.976999 
50.320000 2.241630 -22.976999 
50.531799 2.361310 -22.976999 
50.788101 2.358820 -22.966999 
51.011101 2.418690 -22.966999 
51.277699 2.388010 -22.966999 
51.569901 2.228330 -22.947001 
51.864700 2.090870 -22.937000 
52.108200 2.094360 -22.937000 
52.326900 2.195240 -22.937000 
52.559200 2.258530 -22.937000 
52.777901 2.359410 -22.937000 
52.954700 2.604660 -22.947001 
53.142601 2.790110 -22.947001 
53.326199 3.016570 -22.957001 
53.520100 3.214840 -22.966999 
53.714901 3.381490 -22.966999 
53.890800 3.658360 -22.976999 
54.015400 4.076180 -22.997000 
54.695801 17.264200 -23.587000 
54.411301 17.373501 -23.597000 
54.987202 17.136200 -23.577000 
55.241001 17.111500 -23.577000 
55.493900 17.118401 -23.566999 
55.768101 17.037300 -23.556999 
56.007301 17.081800 -23.556999 
56.253399 17.107500 -23.556999 
56.467800 17.249399 -23.556999 
56.676201 17.378500 -23.556999 
56.887199 17.529699 -23.566999 
57.098202 17.681000 -23.566999 
57.274101 17.957899 -23.577000 
57.472301 18.115101 -23.577000 
57.658401 18.363800 -23.587000 
57.848900 18.571501 -23.597000 
58.018002 18.867100 -23.607000 
58.183601 19.172199 -23.617001 
58.299702 19.672001 -23.396999 
58.327900 19.565201 -23.636999 
-20.716000 0.756321 -24.347000 
-21.108299 1.103070 -24.367001 
-20.269899 0.290827 -24.316999 
-19.966600 0.188394 -24.306999 
-19.646099 0.038976 -24.297001 
-19.373600 0.021115 -24.287001 
-19.080500 -0.053128 -24.277000 
-18.794300 -0.108577 -24.277000 
-18.538000 -0.111064 -24.267000 
-18.255199 -0.157116 -24.267000 
-18.054501 0.022358 -24.267000 
-17.815300 0.066855 -24.267000 
-17.607700 0.227535 -24.267000 
-17.426600 0.431780 -24.277000 
-10.333400 -15.343600 -23.427000 
-10.681200 -15.119000 -23.447001 
-10.015500 -15.515200 -23.417000 
-9.722440 -15.589400 -23.407000 
-9.428510 -15.695300 -23.396999 
-9.165360 -15.716600 -23.386999 
-8.905630 -15.728400 -23.386999 
-8.629660 -15.755700 -23.377001 
-8.349410 -15.824000 -23.367001 
-8.096530 -15.817100 -23.367001 
-7.884680 -15.697400 -23.367001 
-7.635210 -15.681100 -23.367001 
-7.392590 -15.646000 -23.367001 
-7.160220 -15.582700 -23.357000 
-6.938110 -15.491200 -23.367001 
-6.753630 -15.296400 -23.367001 
-6.514420 -15.251900 -23.367001 
-6.288900 -15.169800 -23.367001 
-6.107830 -14.965500 -23.377001 
-5.889150 -14.864700 -23.377001 
-5.735450 -14.585200 -23.386999 
-5.557800 -14.371600 -23.386999 
-5.481900 -13.907700 -23.407000 
-5.287160 -13.741000 -23.417000 
-5.092410 -13.574300 -23.417000 
-4.935290 -13.304300 -23.427000 
-4.826050 -12.902700 -23.447001 
-4.733910 -12.454200 -23.466999 
-4.559690 -12.231100 -23.476999 
-4.347840 -12.111500 -23.476999 
27.818899 19.240999 -24.386999 
27.424000 19.682600 -24.407000 
28.175200 18.934401 -24.367001 
28.562401 18.543200 -24.337000 
28.846001 18.465500 -24.327000 
29.230600 18.052099 -24.306999 
29.556200 17.830099 -24.287001 
29.874100 17.658501 -24.277000 
30.150900 17.599600 -24.267000 
30.431999 17.499701 -24.257000 
30.684000 17.538200 -24.257000 
30.950600 17.507601 -24.247000 
31.196699 17.533300 -24.247000 
31.429001 17.596600 -24.247000 
31.691299 17.606899 -24.237000 
31.892900 17.754801 -24.247000 
32.127800 17.840300 -24.247000 
32.397800 17.800200 -24.237000 
32.615601 17.932699 -24.237000 
32.802700 18.149700 -24.247000 
33.021400 18.250601 -24.247000 
33.193802 18.536900 -24.257000 
33.387699 18.735100 -24.267000 
33.561100 18.989799 -24.277000 
33.785801 19.103500 -24.277000 
33.993301 19.264200 -24.277000 
34.249599 19.261700 -24.277000 
34.474300 19.375401 -24.277000 
34.661301 19.592400 -24.287001 
34.834702 19.847099 -24.287001 
34.982399 20.230700 -24.306999 
35.100101 20.667400 -24.327000 
47.348499 2.160450 -23.257000 
47.105099 2.156960 -23.267000 
47.671600 1.916200 -23.247000 
47.986900 1.722350 -23.226999 
48.209900 1.782220 -23.226999 
48.480701 1.710540 -23.216999 
48.726799 1.736240 -23.216999 
48.948898 1.827720 -23.216999 
49.188099 1.872220 -23.216999 
49.428101 1.885100 -23.207001 
49.646801 1.985980 -23.216999 
49.865501 2.086860 -23.216999 
50.101299 2.140760 -23.216999 
50.320000 2.241630 -23.216999 
50.552299 2.304930 -23.207001 
50.792400 2.317810 -23.207001 
51.028198 2.371710 -23.207001 
51.264000 2.425600 -23.207001 
51.552799 2.275320 -23.197001 
51.847599 2.137850 -23.187000 
52.084301 2.160140 -23.177000 
52.313202 2.232820 -23.177000 
52.542099 2.305510 -23.177000 
52.757401 2.415790 -23.177000 
52.958099 2.595260 -23.187000 
53.166599 2.724330 -23.187000 
53.357899 2.900390 -23.187000 
53.544899 3.117450 -23.197001 
53.752499 3.278130 -23.207001 
53.898499 3.607950 -23.216999 
54.050499 3.950600 -23.226999 
54.629101 17.506001 -23.847000 
54.354900 17.587099 -23.857000 
54.931599 17.318100 -23.827000 
55.194801 17.296900 -23.827000 
55.437401 17.332001 -23.827000 
55.694599 17.297899 -23.816999 
55.958599 17.245001 -23.806999 
56.197800 17.289499 -23.806999 
56.436100 17.365601 -23.806999 
56.672798 17.387899 -23.806999 
56.887199 17.529699 -23.806999 
57.098202 17.681000 -23.806999 
57.302299 17.851101 -23.816999 
57.485901 18.077600 -23.827000 
57.668701 18.335600 -23.827000 
57.883999 18.445900 -23.837000 
58.056499 18.732201 -23.847000 
58.260601 18.902201 -23.847000 
58.397999 19.314100 -23.867001 
58.500401 19.851500 -23.646999 
58.577400 19.581499 -23.877001 
-20.763901 0.887878 -24.597000 
-21.216801 1.372160 -24.627001 
-20.297300 0.366003 -24.566999 
-19.952900 0.150806 -24.547001 
-19.625601 -0.017406 -24.537001 
-19.346201 -0.054061 -24.527000 
-19.063400 -0.100113 -24.527000 
-18.760099 -0.202546 -24.517000 
-18.508101 -0.164026 -24.507000 
-18.268900 -0.119529 -24.507000 
-18.051001 0.012961 -24.517000 
-17.832399 0.113840 -24.517000 
-17.611099 0.236932 -24.517000 
-17.392401 0.337811 -24.517000 
-16.884800 -0.296827 -24.237000 
-17.177999 0.479698 -24.517000 
-10.381300 -15.212000 -23.677000 
-10.681200 -15.119000 -23.687000 
-10.060000 -15.393000 -23.657000 
-9.732700 -15.561200 -23.646999 
-9.449030 -15.638900 -23.636999 
-9.175620 -15.688400 -23.627001 
-8.922730 -15.681500 -23.627001 
-8.633080 -15.746300 -23.617001 
-8.380200 -15.739400 -23.617001 
-8.140990 -15.694900 -23.617001 
-7.860740 -15.763200 -23.607000 
-7.577070 -15.840800 -23.597000 
-7.348120 -15.768100 -23.597000 
-7.119180 -15.695500 -23.597000 
-6.900490 -15.594600 -23.597000 
-6.705750 -15.427900 -23.597000 
-6.538360 -15.186100 -23.607000 
-6.319680 -15.085200 -23.607000 
-6.121510 -14.927900 -23.617001 
-5.937030 -14.733100 -23.617001 
-5.797010 -14.416100 -23.636999 
-5.612530 -14.221200 -23.636999 
-5.431460 -14.017000 -23.646999 
-5.273480 -13.778600 -23.657000 
-5.143720 -13.433400 -23.667000 
-4.986590 -13.163400 -23.677000 
-4.843150 -12.855800 -23.687000 
-4.744170 -12.426000 -23.707001 
-4.603290 -12.140600 -23.716999 
-4.378630 -12.026900 -23.716999 
28.165001 18.962601 -24.607000 
27.791500 19.316200 -24.636999 
28.562401 18.543200 -24.587000 
28.860600 18.396299 -24.566999 
29.223801 18.070900 -24.547001 
29.539101 17.877100 -24.537001 
29.863800 17.686701 -24.517000 
30.148300 17.577400 -24.507000 
30.428600 17.509100 -24.507000 
30.691700 17.487801 -24.497000 
30.960899 17.479401 -24.497000 
31.210300 17.495701 -24.487000 
31.452999 17.530800 -24.487000 
31.691299 17.606899 -24.487000 
31.927099 17.660801 -24.487000 
32.183399 17.658300 -24.476999 
32.390999 17.819000 -24.487000 
32.619900 17.891701 -24.487000 
32.812901 18.121500 -24.487000 
33.024799 18.241199 -24.497000 
33.197300 18.527500 -24.507000 
33.411701 18.669399 -24.507000 
33.598701 18.886400 -24.517000 
33.826801 18.990700 -24.517000 
34.013802 19.207800 -24.517000 
34.221401 19.368500 -24.527000 
34.492199 19.296801 -24.517000 
34.698898 19.489100 -24.527000 
34.841499 19.828300 -24.537001 
34.975498 20.249500 -24.556999 
35.062500 20.770700 -24.577000 
47.646801 2.013590 -23.487000 
47.341702 2.179240 -23.497000 
47.942402 1.844510 -23.476999 
48.212399 1.804440 -23.466999 
48.452499 1.817320 -23.466999 
48.688301 1.871220 -23.466999 
48.952301 1.818320 -23.457001 
49.191502 1.862820 -23.457001 
49.406799 1.973100 -23.457001 
49.632301 2.055180 -23.457001 
49.872299 2.068070 -23.457001 
50.118401 2.093770 -23.447001 
50.350800 2.157060 -23.447001 
50.552299 2.304930 -23.447001 
50.795799 2.308410 -23.447001 
51.055599 2.296530 -23.447001 
51.288799 2.328210 -23.437000 
51.541698 2.335120 -23.437000 
51.830502 2.184840 -23.427000 
52.056000 2.266920 -23.427000 
52.320000 2.214030 -23.417000 
52.542099 2.305510 -23.417000 
52.740299 2.462770 -23.417000 
52.954700 2.604660 -23.427000 
53.149502 2.771320 -23.427000 
53.329700 3.007170 -23.437000 
53.531200 3.155040 -23.437000 
53.752499 3.278130 -23.437000 
53.933498 3.482370 -23.447001 
54.088902 3.815620 -23.457001 
54.864899 17.559900 -24.087000 
54.608601 17.562401 -24.087000 
55.139198 17.478800 -24.077000 
55.395500 17.476299 -24.077000 
55.641499 17.502001 -24.066999 
55.912399 17.430300 -24.066999 
56.154999 17.465401 -24.056999 
56.401901 17.459499 -24.056999 
56.641102 17.504000 -24.056999 
56.869202 17.608299 -24.056999 
57.098202 17.681000 -24.056999 
57.309200 17.832300 -24.056999 
57.482498 18.087000 -24.066999 
57.696899 18.228800 -24.066999 
57.880501 18.455299 -24.077000 
58.059898 18.722799 -24.087000 
58.260601 18.902201 -24.087000 
58.436501 19.179100 -24.097000 
58.615799 19.446600 -24.107000 
58.694302 20.049801 -23.896999 
58.754101 19.826799 -24.127001 
-21.738199 2.044390 -24.667000 
-21.227100 1.400360 -24.877001 
-21.683500 1.894040 -24.907000 
-20.774099 0.916069 -24.847000 
-20.297300 0.366003 -24.816999 
-19.939199 0.113218 -24.797001 
-19.568300 -0.145543 -24.777000 
-19.312000 -0.148030 -24.767000 
-19.046301 -0.147097 -24.767000 
-18.756701 -0.211943 -24.757000 
-18.504700 -0.173423 -24.757000 
-18.251801 -0.166513 -24.757000 
-17.989500 -0.156184 -24.747000 
-17.794701 0.010474 -24.757000 
-17.559799 0.095978 -24.757000 
-17.385599 0.319017 -24.757000 
-17.181400 0.489095 -24.767000 
-10.384700 -15.202600 -23.917000 
-10.688000 -15.100200 -23.927000 
-10.077100 -15.346000 -23.907000 
-9.729280 -15.570600 -23.886999 
-9.466130 -15.591900 -23.877001 
-9.189300 -15.650800 -23.877001 
-8.898790 -15.747200 -23.867001 
-8.626240 -15.765100 -23.857000 
-8.363100 -15.786400 -23.857000 
-8.144410 -15.685500 -23.857000 
-7.843640 -15.810200 -23.847000 
-7.587330 -15.812600 -23.837000 
-7.351540 -15.758700 -23.837000 
-7.112340 -15.714200 -23.837000 
-6.879970 -15.651000 -23.837000 
-6.674970 -15.512500 -23.837000 
-6.493900 -15.308200 -23.847000 
-6.285480 -15.179200 -23.847000 
-6.097570 -14.993700 -23.847000 
-5.930190 -14.751900 -23.857000 
-5.769650 -14.491300 -23.867001 
-5.568060 -14.343400 -23.877001 
-5.397260 -14.111000 -23.877001 
-5.246110 -13.853800 -23.886999 
-5.095830 -13.564900 -23.896999 
-4.966070 -13.219700 -23.917000 
-4.839730 -12.865100 -23.927000 
-4.733910 -12.454200 -23.947001 
-4.620390 -12.093600 -23.966999 
-4.449590 -11.861200 -23.966999 
28.137600 19.037701 -24.857000 
27.781300 19.344400 -24.877001 
28.565800 18.533800 -24.827000 
28.867399 18.377501 -24.816999 
29.199800 18.136700 -24.797001 
29.535700 17.886499 -24.787001 
29.874100 17.658501 -24.767000 
30.157700 17.580799 -24.757000 
30.449100 17.452700 -24.747000 
30.698601 17.469000 -24.747000 
30.954000 17.498199 -24.737000 
31.230900 17.439301 -24.726999 
31.508600 17.348801 -24.726999 
31.698999 17.556499 -24.726999 
31.937401 17.632601 -24.726999 
32.151798 17.774500 -24.726999 
32.390999 17.819000 -24.726999 
32.612202 17.942101 -24.726999 
32.837700 18.024200 -24.726999 
33.048698 18.175400 -24.737000 
33.228901 18.411301 -24.747000 
33.421902 18.641199 -24.747000 
33.626099 18.811300 -24.757000 
33.841301 18.921499 -24.757000 
34.030899 19.160801 -24.767000 
34.228199 19.349701 -24.767000 
34.470901 19.384800 -24.767000 
34.695499 19.498501 -24.767000 
34.848400 19.809500 -24.777000 
35.024300 20.086399 -24.787001 
35.118099 20.588800 -24.816999 
47.897099 1.998280 -23.726999 
47.639900 2.032380 -23.726999 
48.161098 1.945390 -23.716999 
48.438801 1.854910 -23.707001 
48.705399 1.824230 -23.697001 
48.928299 1.884100 -23.697001 
49.177799 1.900410 -23.697001 
49.435001 1.866310 -23.687000 
49.636600 2.014170 -23.697001 
49.906601 1.974100 -23.687000 
50.128700 2.065580 -23.687000 
50.344799 2.144250 -23.687000 
50.577202 2.207540 -23.687000 
50.830002 2.214450 -23.677000 
51.041901 2.334120 -23.687000 
51.274300 2.397410 -23.687000 
51.548500 2.316330 -23.677000 
51.795399 2.310420 -23.667000 
52.042301 2.304510 -23.667000 
52.306400 2.251620 -23.657000 
52.531898 2.333700 -23.657000 
52.742901 2.484990 -23.657000 
52.954700 2.604660 -23.667000 
53.163101 2.733730 -23.667000 
53.329700 3.007170 -23.677000 
53.520100 3.214840 -23.677000 
53.738800 3.315720 -23.687000 
53.929298 3.523380 -23.687000 
54.064098 3.913010 -23.707001 
55.058800 17.758200 -24.337000 
54.843498 17.647900 -24.337000 
55.364700 17.560900 -24.316999 
55.617599 17.567801 -24.316999 
55.839699 17.659300 -24.316999 
56.113098 17.609800 -24.306999 
56.397701 17.500500 -24.297001 
56.612900 17.610800 -24.297001 
56.859001 17.636499 -24.297001 
57.073399 17.778400 -24.297001 
57.288601 17.888700 -24.306999 
57.499599 18.040001 -24.306999 
57.696899 18.228800 -24.306999 
57.883999 18.445900 -24.316999 
58.084702 18.625401 -24.327000 
58.305901 18.748501 -24.327000 
58.474998 19.044100 -24.337000 
58.661999 19.261200 -24.347000 
58.813099 19.635401 -24.357000 
58.906101 20.169399 -24.136999 
59.007000 19.833700 -24.367001 
59.039299 20.622299 -24.157000 
59.154701 20.217400 -24.377001 
-20.781000 0.934862 -25.097000 
-21.203199 1.334580 -25.117001 
-20.266500 0.281430 -25.056999 
-19.885300 -0.005521 -25.037001 
-19.561501 -0.164336 -25.017000 
-19.312000 -0.148030 -25.017000 
-19.005301 -0.259860 -25.007000 
-18.766899 -0.183752 -25.007000 
-18.470501 -0.267392 -24.997000 
-18.241501 -0.194704 -24.997000 
-18.020300 -0.071611 -24.997000 
-17.801600 0.029267 -24.997000 
-17.552999 0.077185 -24.997000 
-17.330900 0.168666 -24.997000 
-17.140400 0.376331 -25.007000 
-10.377800 -15.221400 -24.157000 
-10.684600 -15.109600 -24.167000 
-10.087300 -15.317800 -24.146999 
-9.789980 -15.433100 -24.136999 
-9.486650 -15.535500 -24.127001 
-9.209820 -15.594400 -24.117001 
-8.932990 -15.653300 -24.107000 
-8.615980 -15.793300 -24.097000 
-8.383620 -15.730000 -24.097000 
-8.134150 -15.713700 -24.097000 
-7.853900 -15.782000 -24.087000 
-7.570230 -15.859600 -24.077000 
-7.382330 -15.674200 -24.077000 
-7.149960 -15.610900 -24.077000 
-6.931270 -15.510000 -24.077000 
-6.698910 -15.446700 -24.077000 
-6.504160 -15.280100 -24.087000 
-6.288900 -15.169800 -24.087000 
-6.083890 -15.031300 -24.087000 
-5.909670 -14.808300 -24.097000 
-5.742290 -14.566400 -24.107000 
-5.561220 -14.362200 -24.117001 
-5.390420 -14.129800 -24.117001 
-5.195670 -13.963100 -24.127001 
-5.092410 -13.574300 -24.136999 
-4.962650 -13.229100 -24.157000 
-4.867090 -12.790000 -24.177000 
-4.713390 -12.510600 -24.187000 
-4.623810 -12.084200 -24.207001 
-4.490630 -11.748400 -24.216999 
27.296600 20.061899 -24.927000 
27.784700 19.334999 -25.127001 
27.344500 19.930300 -25.157000 
28.147900 19.009600 -25.107000 
28.545300 18.590200 -25.077000 
28.874300 18.358700 -25.056999 
29.223801 18.070900 -25.037001 
29.542500 17.867701 -25.027000 
29.880899 17.639700 -25.007000 
30.172300 17.511600 -24.997000 
30.462799 17.415199 -24.987000 
30.698601 17.469000 -24.987000 
30.947201 17.517000 -24.987000 
31.217199 17.476900 -24.976999 
31.459801 17.511999 -24.976999 
31.698999 17.556499 -24.976999 
31.954500 17.585600 -24.966999 
32.169701 17.695900 -24.976999 
32.418301 17.743799 -24.966999 
32.633598 17.854099 -24.976999 
32.848000 17.996000 -24.976999 
33.055599 18.156601 -24.976999 
33.228901 18.411301 -24.987000 
33.415100 18.660000 -24.997000 
33.574799 18.952200 -25.007000 
33.792599 19.084700 -25.007000 
34.007000 19.226601 -25.017000 
34.259899 19.233500 -25.007000 
34.492199 19.296801 -25.007000 
34.674999 19.554899 -25.017000 
34.844898 19.818899 -25.027000 
35.041401 20.039400 -25.037001 
35.155701 20.485399 -25.056999 
48.157700 1.954790 -23.957001 
47.917599 1.941900 -23.957001 
48.420799 1.933510 -23.947001 
48.684799 1.880610 -23.947001 
48.942001 1.846520 -23.937000 
49.181198 1.891010 -23.937000 
49.428101 1.885100 -23.927000 
49.663898 1.939000 -23.927000 
49.906601 1.974100 -23.927000 
50.139801 2.005780 -23.927000 
50.348202 2.134850 -23.927000 
50.601101 2.141760 -23.917000 
50.836899 2.195650 -23.917000 
51.035000 2.352910 -23.927000 
51.281101 2.378620 -23.917000 
51.534801 2.353910 -23.917000 
51.795399 2.310420 -23.907000 
52.049198 2.285720 -23.907000 
52.291801 2.320820 -23.896999 
52.513901 2.412300 -23.896999 
52.740299 2.462770 -23.896999 
52.968399 2.567070 -23.896999 
53.169998 2.714930 -23.907000 
53.350201 2.950790 -23.907000 
53.572300 3.042270 -23.917000 
53.760201 3.227720 -23.917000 
53.940399 3.463580 -23.927000 
54.095798 3.796820 -23.937000 
54.069901 4.745150 -23.747000 
54.084400 4.675960 -23.976999 
55.252701 17.956400 -24.587000 
54.961300 18.084499 -24.597000 
55.557701 17.790800 -24.566999 
55.808102 17.775499 -24.566999 
56.040401 17.838800 -24.566999 
56.328400 17.720100 -24.556999 
56.574402 17.745800 -24.547001 
56.831600 17.711700 -24.547001 
57.052799 17.834801 -24.547001 
57.271500 17.935699 -24.547001 
57.485901 18.077600 -24.547001 
57.679798 18.275801 -24.556999 
57.877102 18.464701 -24.566999 
58.098400 18.587799 -24.566999 
58.278599 18.823601 -24.577000 
58.510101 18.918501 -24.577000 
58.675701 19.223600 -24.587000 
58.844799 19.519300 -24.597000 
59.017300 19.805500 -24.607000 
59.182899 20.110600 -24.617001 
59.268200 20.695000 -24.396999 
59.324699 20.481400 -24.636999 
-20.784401 0.944259 -25.337000 
-21.203199 1.334580 -25.367001 
-20.259600 0.262637 -25.297001 
-19.844299 -0.118284 -25.277000 
-19.547800 -0.201924 -25.267000 
-19.288099 -0.213809 -25.257000 
-18.961700 -0.350410 -25.247000 
-18.715599 -0.324706 -25.247000 
-18.436199 -0.361361 -25.237000 
-18.217600 -0.260483 -25.237000 
-17.972401 -0.203168 -25.237000 
-17.757999 -0.061282 -25.237000 
-17.515400 -0.026182 -25.237000 
-17.297501 0.106308 -25.237000 
-17.116501 0.310553 -25.247000 
-10.388100 -15.193200 -24.396999 
-10.715400 -15.025000 -24.407000 
-10.107800 -15.261500 -24.386999 
-9.783140 -15.451900 -24.377001 
-9.503750 -15.488500 -24.367001 
-9.199560 -15.622600 -24.357000 
-8.967190 -15.559300 -24.357000 
-8.646770 -15.708700 -24.347000 
-8.369940 -15.767600 -24.337000 
-8.106790 -15.788900 -24.327000 
-7.850480 -15.791400 -24.327000 
-7.597590 -15.784400 -24.316999 
-7.399430 -15.627200 -24.327000 
-7.187580 -15.507500 -24.327000 
-6.979160 -15.378400 -24.327000 
-6.726270 -15.371500 -24.327000 
-6.524680 -15.223700 -24.327000 
-6.306000 -15.122800 -24.327000 
-6.104410 -14.974900 -24.337000 
-5.889150 -14.864700 -24.337000 
-5.690980 -14.707400 -24.337000 
-5.530440 -14.446800 -24.347000 
-5.376740 -14.167300 -24.357000 
-5.185410 -13.991300 -24.367001 
-5.068470 -13.640100 -24.377001 
-4.925030 -13.332500 -24.386999 
-4.832890 -12.883900 -24.407000 
-4.665510 -12.642100 -24.417000 
-4.593030 -12.168800 -24.437000 
-4.453010 -11.851800 -24.457001 
27.770100 19.404200 -25.377001 
27.344500 19.930300 -25.407000 
28.136700 19.069401 -25.357000 
28.548700 18.580799 -25.327000 
28.864000 18.386900 -25.306999 
29.186199 18.174299 -25.297001 
29.514299 17.974501 -25.277000 
29.829599 17.780600 -25.267000 
30.151800 17.568001 -25.247000 
30.442301 17.471500 -25.237000 
30.722500 17.403299 -25.226999 
31.002800 17.334999 -25.216999 
31.238600 17.388901 -25.216999 
31.487200 17.436800 -25.216999 
31.712700 17.518900 -25.216999 
31.944201 17.613800 -25.216999 
32.162899 17.714701 -25.216999 
32.429501 17.684000 -25.216999 
32.660999 17.778900 -25.216999 
32.827499 18.052299 -25.226999 
33.055599 18.156601 -25.226999 
33.259701 18.326700 -25.226999 
33.415100 18.660000 -25.247000 
33.595299 18.895800 -25.247000 
33.816502 19.018900 -25.257000 
34.021500 19.157400 -25.257000 
34.252998 19.252300 -25.257000 
34.491402 19.328400 -25.257000 
34.688702 19.517300 -25.257000 
34.865501 19.762501 -25.267000 
35.055901 19.970200 -25.277000 
35.135201 20.541800 -25.297001 
48.365200 2.115470 -24.197001 
48.067001 2.262330 -24.207001 
48.642899 2.024990 -24.187000 
48.924099 1.925110 -24.177000 
49.174400 1.909810 -24.177000 
49.431599 1.875710 -24.167000 
49.674198 1.910810 -24.167000 
49.924500 1.895500 -24.157000 
50.128700 2.065580 -24.167000 
50.365299 2.087860 -24.167000 
50.604500 2.132360 -24.157000 
50.812901 2.261430 -24.167000 
51.063301 2.246130 -24.157000 
51.323002 2.234240 -24.157000 
51.538300 2.344520 -24.157000 
51.802299 2.291620 -24.146999 
52.062901 2.248130 -24.136999 
52.306400 2.251620 -24.136999 
52.531898 2.333700 -24.136999 
52.757401 2.415790 -24.136999 
52.962399 2.554250 -24.136999 
53.183701 2.677350 -24.136999 
53.402302 2.778230 -24.136999 
53.583401 2.982470 -24.146999 
