14.668800 -5.551120 2.503000 
14.905100 -5.509450 2.503000 
15.158900 -5.566250 2.503000 
15.379600 -5.435950 2.503000 
15.600300 -5.305640 2.503000 
15.837800 -5.212990 2.503000 
16.088100 -5.250090 2.503000 
16.320999 -5.188720 2.503000 
16.533001 -5.009170 2.503000 
16.758900 -4.908410 2.493000 
17.008600 -4.884690 2.493000 
17.239799 -4.813470 2.493000 
17.479601 -4.791490 2.493000 
17.693399 -4.621790 2.493000 
17.927999 -4.570270 2.493000 
18.141199 -4.339750 2.493000 
18.370600 -4.258680 2.493000 
18.609900 -4.175870 2.493000 
18.830601 -4.045560 2.493000 
19.046101 -3.885710 2.483000 
19.287100 -3.812760 2.483000 
19.511299 -3.702140 2.483000 
19.751101 -3.680160 2.483000 
19.968399 -3.530160 2.483000 
20.193701 -3.368570 2.483000 
20.430099 -3.326900 2.483000 
20.655500 -3.165310 2.483000 
20.877899 -3.044850 2.473000 
21.114300 -3.003170 2.473000 
21.345400 -2.931950 2.473000 
21.591600 -2.888540 2.473000 
21.833200 -2.876410 2.473000 
22.057400 -2.765800 2.473000 
22.297199 -2.743820 2.473000 
22.528299 -2.672600 2.473000 
22.775101 -2.690010 2.473000 
23.014400 -2.607200 2.473000 
23.252501 -2.575380 2.473000 
23.493999 -2.563250 2.473000 
23.723400 -2.482180 2.473000 
23.980600 -2.558680 2.483000 
24.223900 -2.556400 2.483000 
24.479401 -2.623050 2.483000 
24.724400 -2.630610 2.483000 
24.990299 -2.756360 2.483000 
25.254999 -2.933070 2.493000 
25.487900 -2.871700 2.493000 
25.760700 -3.036840 2.493000 
26.017900 -3.113340 2.493000 
26.279100 -3.270360 2.503000 
26.564100 -3.504430 2.503000 
26.827101 -3.671300 2.503000 
27.080799 -3.728110 2.513000 
27.368099 -4.032850 2.513000 
27.664000 -4.386830 2.523000 
27.939199 -4.622640 2.523000 
28.190001 -4.720580 2.533000 
28.472099 -4.995780 2.533000 
28.751801 -5.200300 2.543000 
28.999201 -5.278540 2.543000 
29.245899 -5.295950 2.543000 
29.531500 -5.590850 2.553000 
29.785200 -5.647650 2.553000 
30.032600 -5.725890 2.553000 
30.303600 -5.881180 2.553000 
30.556200 -5.988960 2.563000 
30.799500 -5.986680 2.563000 
31.049700 -6.023790 2.563000 
31.298201 -6.051050 2.563000 
31.536900 -6.080040 2.563000 
31.781900 -6.087610 2.563000 
32.035702 -6.144410 2.563000 
32.263302 -6.053500 2.563000 
32.503201 -6.031520 2.563000 
32.729099 -5.930750 2.563000 
32.981098 -5.977710 2.563000 
33.222599 -5.965580 2.573000 
33.453800 -5.894360 2.563000 
33.709202 -5.961010 2.573000 
33.954300 -5.968580 2.573000 
34.181900 -5.877660 2.573000 
34.428699 -5.895080 2.573000 
34.662201 -5.894530 2.573000 
34.898499 -5.852850 2.573000 
35.136002 -5.760200 2.573000 
35.386902 -5.858130 2.573000 
35.600101 -5.627610 2.573000 
35.838200 -5.595780 2.573000 
36.070999 -5.534410 2.573000 
36.298100 -5.382670 2.563000 
36.529900 -5.372270 2.573000 
36.778400 -5.399530 2.573000 
37.016499 -5.367710 2.573000 
37.276001 -5.514880 2.573000 
37.541801 -5.640620 2.573000 
37.781700 -5.618640 2.573000 
38.020302 -5.647640 2.583000 
38.277500 -5.724140 2.583000 
38.501701 -5.613530 2.583000 
38.727600 -5.512770 2.573000 
38.963402 -5.410270 2.573000 
39.202099 -5.439260 2.583000 
39.440201 -5.407440 2.583000 
39.676498 -5.365760 2.583000 
39.915798 -5.282960 2.573000 
40.136501 -5.152650 2.573000 
40.372898 -5.110970 2.573000 
40.599998 -4.959230 2.573000 
40.819000 -4.819080 2.573000 
41.050098 -4.747860 2.573000 
41.284100 -4.635510 2.573000 
41.494499 -4.446110 2.563000 
41.716301 -4.264830 2.563000 
41.945202 -4.122930 2.563000 
42.167599 -4.002470 2.563000 
42.377399 -3.752250 2.563000 
42.594101 -3.541420 2.553000 
42.817699 -3.369980 2.553000 
43.038399 -3.239680 2.553000 
43.237202 -2.869540 2.543000 
43.443401 -2.599620 2.543000 
43.654301 -2.298420 2.533000 
43.862301 -2.038350 2.533000 
44.048901 -1.599280 2.523000 
44.110500 3.925340 2.423000 
43.869499 3.852390 2.423000 
44.357300 3.907930 2.433000 
44.580898 4.079370 2.423000 
44.806801 4.180130 2.423000 
45.051300 4.233390 2.423000 
45.270302 4.373550 2.423000 
45.513000 4.436660 2.423000 
45.770802 4.299330 2.423000 
46.032001 4.142310 2.433000 
46.307201 3.906500 2.433000 
46.571899 3.729780 2.443000 
46.843498 3.513670 2.443000 
47.083900 3.474830 2.443000 
47.325500 3.486960 2.443000 
47.573399 3.520520 2.443000 
47.794102 3.650830 2.443000 
48.042099 3.684390 2.443000 
48.280201 3.716220 2.443000 
48.507801 3.807140 2.443000 
48.745399 3.899790 2.443000 
48.969601 4.010400 2.443000 
49.189098 4.262360 2.433000 
49.414501 4.423950 2.433000 
49.624199 4.674170 2.433000 
49.846100 4.855460 2.433000 
-42.840199 -13.640400 2.223000 
-43.103802 -13.585300 2.223000 
-42.612499 -13.549400 2.223000 
-42.376202 -13.507800 2.223000 
-42.143299 -13.446400 2.223000 
-41.908699 -13.394900 2.223000 
-41.574501 -13.792900 2.233000 
-41.608101 -13.890200 2.353000 
-41.095001 -14.784700 2.253000 
-40.769501 -15.133500 2.263000 
-40.547001 -15.013000 2.253000 
-40.276501 -15.107500 2.263000 
-39.959702 -15.407000 2.263000 
-39.484798 -16.430099 2.283000 
-39.624401 -16.271900 2.343000 
-39.155800 -16.798500 2.293000 
-38.960602 -16.581301 2.293000 
-38.724201 -16.539700 2.293000 
-38.452000 -16.643999 2.293000 
-38.148998 -16.864700 2.303000 
-37.945099 -16.696800 2.293000 
-37.755100 -16.450001 2.293000 
-37.426102 -16.818501 2.303000 
-37.071602 -17.273800 2.313000 
-36.812698 -17.360201 2.313000 
-36.595402 -17.210199 2.313000 
-36.386299 -17.071800 2.303000 
-36.122700 -17.126801 2.313000 
-35.790298 -17.514999 2.313000 
-35.536598 -17.571800 2.323000 
-35.305401 -17.500601 2.323000 
-35.054001 -17.486700 2.323000 
-34.812401 -17.474600 2.323000 
-34.603298 -17.336201 2.313000 
-34.365200 -17.304300 2.313000 
-34.091202 -17.418501 2.323000 
-33.822498 -17.503099 2.323000 
-33.572201 -17.540199 2.323000 
-33.327202 -17.547800 2.323000 
-33.048000 -17.691500 2.333000 
-32.753201 -17.923800 2.333000 
-32.496498 -17.939501 2.333000 
-32.282200 -17.830601 2.333000 
-32.034199 -17.797100 2.333000 
-31.737700 -18.039200 2.343000 
-31.470100 -18.174801 2.343000 
-31.233700 -18.133200 2.343000 
-30.975401 -18.158701 2.343000 
-30.721600 -18.215500 2.343000 
-30.473101 -18.242800 2.343000 
-30.219999 -18.238701 2.343000 
-29.959299 -18.334900 2.353000 
-29.728201 -18.263700 2.353000 
-29.452499 -18.387699 2.353000 
-29.188299 -18.503599 2.353000 
-28.950199 -18.471800 2.353000 
-28.727800 -18.351299 2.353000 
-28.481001 -18.368700 2.353000 
-28.194901 -18.551800 2.363000 
-27.896601 -18.803900 2.363000 
-27.613899 -18.967300 2.373000 
-27.408199 -18.809099 2.363000 
-27.144699 -18.864201 2.373000 
-26.901400 -18.861900 2.373000 
-26.683500 -18.772699 2.373000 
-26.459299 -18.662100 2.363000 
-26.271000 -18.405500 2.363000 
-26.045099 -18.304800 2.363000 
-25.826099 -18.164600 2.363000 
-25.584499 -18.152500 2.363000 
-25.325600 -18.238800 2.363000 
-25.049900 -18.362801 2.363000 
-24.820499 -18.281799 2.363000 
-24.715000 -17.613300 2.353000 
-24.518000 -17.405899 2.353000 
-24.247499 -17.500401 2.353000 
-24.012800 -17.448900 2.353000 
-23.822800 -17.202101 2.353000 
-23.579500 -17.199800 2.353000 
-23.334499 -17.207399 2.353000 
-23.094601 -17.185400 2.353000 
-22.858299 -17.143801 2.353000 
-22.627100 -17.072500 2.353000 
-22.413401 -16.902800 2.353000 
-22.225100 -16.646200 2.343000 
-22.009501 -16.486401 2.343000 
-21.780100 -16.405300 2.343000 
-21.510799 -16.550800 2.343000 
-21.242001 -16.635401 2.343000 
-20.997000 -16.642900 2.343000 
-20.736300 -16.739100 2.353000 
-20.494699 -16.726999 2.353000 
-20.277500 -16.577000 2.353000 
-20.046400 -16.505800 2.353000 
-19.873699 -16.160500 2.343000 
-19.644300 -16.079500 2.343000 
-19.342501 -16.351200 2.343000 
-19.080099 -16.457199 2.353000 
-18.841999 -16.425400 2.353000 
-18.595200 -16.442801 2.353000 
-18.364100 -16.371599 2.353000 
-18.090099 -16.485800 2.353000 
-17.839899 -16.522900 2.353000 
-17.607000 -16.461500 2.353000 
-17.348101 -16.547899 2.353000 
-17.127300 -16.417500 2.353000 
-16.961599 -16.032900 2.353000 
-16.797600 -15.638500 2.343000 
-16.559500 -15.606600 2.343000 
-16.280300 -15.750300 2.343000 
-16.011000 -15.895800 2.353000 
-15.771100 -15.873800 2.353000 
-15.522600 -15.901100 2.353000 
-15.321000 -15.662400 2.353000 
-15.081200 -15.640400 2.353000 
-14.830900 -15.677500 2.353000 
-14.594600 -15.635900 2.353000 
-14.358200 -15.594200 2.353000 
-14.095800 -15.700200 2.353000 
-13.868200 -15.609300 2.353000 
-13.637000 -15.538100 2.353000 
-13.374600 -15.644100 2.353000 
-13.159100 -15.484300 2.353000 
-12.940100 -15.344100 2.353000 
-12.715900 -15.233500 2.353000 
-12.546700 -14.868600 2.343000 
-12.346800 -14.620100 2.343000 
-12.203700 -14.107500 2.333000 
-12.074400 -13.516000 2.323000 
-11.846700 -13.425100 2.323000 
-11.610400 -13.383400 2.323000 
-11.391400 -13.243300 2.313000 
-11.162000 -13.162200 2.313000 
-10.936000 -13.061500 2.313000 
-10.689300 -13.078900 2.313000 
-10.444800 -13.025600 2.313000 
-10.208500 -12.983900 2.313000 
-9.968630 -12.962000 2.313000 
-9.735750 -12.900600 2.313000 
-9.509810 -12.799800 2.313000 
-9.268250 -12.787700 2.313000 
-9.026680 -12.775600 2.313000 
-8.778170 -12.802800 2.313000 
-8.567870 -12.613400 2.313000 
-8.333250 -12.561900 2.313000 
-8.107320 -12.461100 2.313000 
-7.884850 -12.340700 2.313000 
-7.655450 -12.259600 2.313000 
-7.424300 -12.188400 2.313000 
-7.201840 -12.067900 2.313000 
-6.975900 -11.967200 2.303000 
-6.748230 -11.876200 2.303000 
-6.527510 -11.745900 2.303000 
-6.305040 -11.625500 2.303000 
-6.084320 -11.495200 2.303000 
-5.858380 -11.394400 2.303000 
-5.642870 -11.234600 2.303000 
-5.411720 -11.163300 2.303000 
-5.217050 -10.885300 2.293000 
-5.010210 -10.676200 2.293000 
-4.796430 -10.506500 2.293000 
-4.591340 -10.287600 2.283000 
-4.410550 -9.930750 2.283000 
-4.210660 -9.682270 2.273000 
-4.057660 -9.167890 2.263000 
-3.845620 -8.988340 2.263000 
-3.597110 -9.015600 2.263000 
-3.352070 -9.023160 2.263000 
-3.112240 -9.001180 2.263000 
-2.867210 -9.008750 2.263000 
-2.636060 -8.937530 2.263000 
-2.374230 -8.982750 2.273000 
-2.130930 -8.980470 2.273000 
-1.877210 -9.037270 2.273000 
-1.626970 -9.074380 2.273000 
-1.388880 -9.042550 2.273000 
-1.150790 -9.010730 2.273000 
-0.897068 -9.067530 2.273000 
-0.633502 -9.122600 2.273000 
-0.402357 -9.051380 2.273000 
-0.150375 -9.098340 2.273000 
0.080769 -9.027120 2.273000 
0.327542 -9.044530 2.283000 
0.560423 -8.983160 2.273000 
0.800250 -8.961180 2.283000 
1.033130 -8.899810 2.273000 
1.274120 -8.826850 2.273000 
1.508740 -8.775330 2.273000 
1.746830 -8.743500 2.273000 
1.983180 -8.701820 2.273000 
2.233430 -8.738930 2.283000 
2.471520 -8.707110 2.283000 
2.704400 -8.645730 2.283000 
2.951170 -8.663150 2.283000 
3.203160 -8.710100 2.283000 
3.442980 -8.688120 2.283000 
3.675290 -8.565930 2.283000 
3.911650 -8.524250 2.283000 
4.151470 -8.502270 2.283000 
4.391300 -8.480290 2.283000 
4.645020 -8.537100 2.283000 
4.869220 -8.426490 2.283000 
5.095150 -8.325720 2.283000 
5.343660 -8.352980 2.283000 
5.595640 -8.399940 2.283000 
5.833160 -8.307290 2.283000 
6.076460 -8.305000 2.283000 
6.304140 -8.214090 2.283000 
6.538750 -8.162570 2.283000 
6.764690 -8.061800 2.283000 
6.990620 -7.961040 2.283000 
7.228710 -7.929210 2.283000 
7.465070 -7.887530 2.283000 
7.697380 -7.765340 2.283000 
7.921580 -7.654730 2.273000 
8.149250 -7.563810 2.273000 
8.392550 -7.561530 2.273000 
8.651470 -7.647880 2.283000 
8.858310 -7.438780 2.273000 
9.089450 -7.367560 2.273000 
9.337390 -7.334000 2.273000 
9.556380 -7.193840 2.273000 
9.785790 -7.112770 2.273000 
10.032600 -7.130190 2.273000 
10.274100 -7.118060 2.273000 
10.489600 -6.958200 2.273000 
10.716700 -6.806460 2.273000 
10.963500 -6.823880 2.273000 
11.175600 -6.644330 2.273000 
11.413600 -6.612500 2.273000 
11.651700 -6.580670 2.273000 
11.896800 -6.588240 2.273000 
12.115800 -6.448080 2.273000 
12.353300 -6.355430 2.273000 
12.584400 -6.284210 2.263000 
12.799900 -6.124360 2.263000 
13.034600 -6.072830 2.263000 
13.267400 -6.011460 2.263000 
13.498000 -5.879420 2.263000 
13.734400 -5.837740 2.263000 
13.981100 -5.855150 2.263000 
14.210500 -5.774090 2.263000 
14.427800 -5.624080 2.263000 
14.675700 -5.590520 2.263000 
14.903400 -5.499600 2.263000 
15.131100 -5.408690 2.263000 
15.357000 -5.307920 2.263000 
15.591100 -5.195570 2.253000 
15.829200 -5.163740 2.253000 
16.063801 -5.112220 2.253000 
16.308800 -5.119790 2.263000 
16.546900 -5.087960 2.263000 
16.771099 -4.977350 2.253000 
17.012100 -4.904390 2.253000 
17.243200 -4.833170 2.253000 
17.469200 -4.732410 2.253000 
17.689899 -4.602100 2.253000 
17.931499 -4.589970 2.253000 
18.153299 -4.408680 2.253000 
18.377501 -4.298070 2.253000 
18.594200 -4.087240 2.243000 
18.815001 -3.956930 2.243000 
19.039200 -3.846320 2.243000 
19.283600 -3.793060 2.243000 
19.504299 -3.662750 2.243000 
19.742399 -3.630920 2.243000 
19.977100 -3.579400 2.243000 
20.219801 -3.516290 2.243000 
20.452700 -3.454920 2.243000 
20.664700 -3.275370 2.243000 
20.905701 -3.202420 2.243000 
21.114300 -3.003170 2.233000 
21.368000 -3.059980 2.233000 
21.588699 -2.929670 2.233000 
21.838400 -2.905950 2.233000 
22.086901 -2.933210 2.233000 
22.319799 -2.871840 2.233000 
22.547400 -2.780930 2.233000 
22.778601 -2.709710 2.233000 
23.030001 -2.695840 2.233000 
23.264601 -2.644310 2.233000 
23.490601 -2.543550 2.233000 
23.723400 -2.482180 2.233000 
23.978901 -2.548830 2.233000 
24.225700 -2.566240 2.233000 
24.474199 -2.593510 2.243000 
24.731400 -2.670010 2.243000 
24.969500 -2.638180 2.243000 
25.237101 -2.773770 2.243000 
25.498301 -2.930790 2.253000 
25.771099 -3.095930 2.253000 
26.014400 -3.093640 2.253000 
26.270399 -3.221120 2.253000 
26.553699 -3.445340 2.263000 
26.814899 -3.602370 2.263000 
27.084299 -3.747800 2.273000 
27.369801 -4.042700 2.273000 
27.648399 -4.298200 2.283000 
27.944401 -4.652190 2.283000 
28.205601 -4.809210 2.293000 
28.486000 -5.074560 2.293000 
28.750099 -5.190450 2.303000 
29.018299 -5.386870 2.303000 
29.267401 -5.474950 2.303000 
29.524500 -5.551460 2.313000 
29.790400 -5.677200 2.313000 
30.053400 -5.844070 2.313000 
30.308800 -5.910720 2.313000 
30.551001 -5.959410 2.323000 
30.799500 -5.986680 2.323000 
31.053200 -6.043480 2.323000 
31.301701 -6.070740 2.323000 
31.540400 -6.099740 2.323000 
31.790600 -6.136850 2.323000 
32.025200 -6.085330 2.323000 
32.273800 -6.112590 2.323000 
32.510101 -6.070910 2.323000 
32.746498 -6.029230 2.323000 
32.994999 -6.056500 2.333000 
33.238300 -6.054210 2.333000 
33.478699 -6.093060 2.333000 
33.709801 -6.021840 2.333000 
33.946201 -5.980160 2.333000 
34.183701 -5.887510 2.333000 
34.420601 -5.906660 2.333000 
34.663300 -5.843550 2.333000 
34.904900 -5.831420 2.333000 
35.122200 -5.681420 2.333000 
35.360199 -5.649590 2.333000 
35.603500 -5.647310 2.333000 
35.848598 -5.654870 2.333000 
36.064098 -5.495020 2.333000 
36.298100 -5.382670 2.323000 
36.538502 -5.421510 2.333000 
36.786999 -5.448780 2.333000 
37.040798 -5.505580 2.333000 
37.276001 -5.514880 2.333000 
37.544102 -5.711300 2.333000 
37.777000 -5.649920 2.333000 
38.018002 -5.576970 2.333000 
38.263599 -5.645360 2.343000 
38.512100 -5.672620 2.343000 
38.757198 -5.680180 2.343000 
38.991798 -5.628660 2.343000 
39.216000 -5.518050 2.343000 
39.447102 -5.446830 2.343000 
39.699100 -5.493790 2.343000 
39.914600 -5.333930 2.343000 
40.150398 -5.231430 2.333000 
40.372898 -5.110970 2.333000 
40.607498 -5.059450 2.333000 
40.831100 -4.888010 2.333000 
41.060501 -4.806940 2.333000 
41.284100 -4.635510 2.333000 
41.504902 -4.505200 2.333000 
41.724998 -4.314070 2.323000 
41.944000 -4.173910 2.323000 
42.164200 -3.982780 2.323000 
42.386101 -3.801490 2.323000 
42.608002 -3.620210 2.313000 
42.826401 -3.419220 2.313000 
43.036098 -3.169000 2.313000 
43.253399 -3.019000 2.303000 
43.457298 -2.678410 2.303000 
43.663601 -2.408490 2.293000 
43.877998 -2.126990 2.293000 
44.050098 -1.548310 2.283000 
43.674198 3.462560 2.433000 
43.879902 3.793300 2.183000 
43.723999 3.065160 2.203000 
44.115700 3.895800 2.183000 
44.353802 3.927630 2.183000 
44.588402 3.979150 2.183000 
44.819000 4.111200 2.183000 
45.057098 4.143020 2.183000 
45.280701 4.314460 2.183000 
45.518200 4.407110 2.183000 
45.760399 4.358420 2.183000 
46.028599 4.162000 2.183000 
46.296200 4.026410 2.193000 
46.554501 3.828260 2.193000 
46.817501 3.661390 2.203000 
47.072899 3.594740 2.203000 
47.331902 3.508390 2.203000 
47.569901 3.540220 2.203000 
47.799301 3.621290 2.203000 
48.034000 3.672810 2.203000 
48.278400 3.726070 2.203000 
48.520000 3.738200 2.203000 
48.745399 3.899790 2.203000 
48.973000 3.990710 2.203000 
49.198399 4.152290 2.193000 
49.416801 4.353280 2.193000 
49.636398 4.605230 2.193000 
49.849602 4.835760 2.183000 
50.054699 5.227330 2.423000 
50.083698 4.948110 2.183000 
-42.607300 -13.579000 1.983000 
-42.840199 -13.640400 1.983000 
-42.372700 -13.527500 1.983000 
-42.136398 -13.485800 1.983000 
-41.907001 -13.404700 1.983000 
-41.650299 -13.420400 1.983000 
-41.239101 -14.139900 1.993000 
-40.820999 -14.898800 2.013000 
-40.550499 -14.993300 2.013000 
-40.324600 -14.892500 2.013000 
-40.088200 -14.850900 2.013000 
-39.661400 -15.659000 2.033000 
-39.700802 -15.838600 2.193000 
-39.244999 -16.408100 2.043000 
-38.984901 -16.443501 2.043000 
-38.739899 -16.451000 2.043000 
-38.494801 -16.458599 2.053000 
-38.176300 -16.768000 2.053000 
-37.939899 -16.726299 2.053000 
-37.724400 -16.566500 2.053000 
-37.431301 -16.788900 2.063000 
-37.088402 -17.236200 2.063000 
-36.817902 -17.330700 2.073000 
-36.590199 -17.239700 2.073000 
-36.373001 -17.089701 2.063000 
-36.129700 -17.087500 2.063000 
-35.783298 -17.554399 2.073000 
-35.518002 -17.619301 2.083000 
-35.301899 -17.520300 2.083000 
-35.072498 -17.439199 2.073000 
-34.821098 -17.425400 2.083000 
-34.586498 -17.373800 2.073000 
-34.379101 -17.225599 2.073000 
-34.080799 -17.477600 2.083000 
-33.781300 -17.678600 2.083000 
-33.543301 -17.646799 2.083000 
-33.339298 -17.478901 2.083000 
-33.049702 -17.681601 2.093000 
-32.761799 -17.874599 2.093000 
-32.503502 -17.900101 2.093000 
-32.263699 -17.878099 2.093000 
-32.011700 -17.925100 2.093000 
-31.730700 -18.078600 2.103000 
-31.471800 -18.165001 2.103000 
-31.216900 -18.170799 2.103000 
-30.982300 -18.119301 2.103000 
-30.709499 -18.284401 2.103000 
-30.449400 -18.319799 2.113000 
-30.211300 -18.288000 2.113000 
-29.945400 -18.413700 2.113000 
-29.690500 -18.419500 2.113000 
-29.435101 -18.486200 2.113000 
-29.177900 -18.562700 2.113000 
-28.948500 -18.481600 2.113000 
-28.731199 -18.331600 2.113000 
-28.481001 -18.368700 2.113000 
-28.184401 -18.610901 2.123000 
-27.877501 -18.912201 2.123000 
-27.612200 -18.977100 2.133000 
-27.410000 -18.799299 2.123000 
-27.168400 -18.787201 2.123000 
-26.919901 -18.814400 2.133000 
-26.685301 -18.762899 2.133000 
-26.475000 -18.573500 2.123000 
-26.250799 -18.462900 2.123000 
-26.039900 -18.334299 2.123000 
-25.817400 -18.213900 2.123000 
-25.582800 -18.162300 2.123000 
-25.323900 -18.248699 2.123000 
-25.062000 -18.293900 2.123000 
-24.891100 -17.938801 2.123000 
-24.759501 -17.418100 2.113000 
-24.518000 -17.405899 2.113000 
-24.250900 -17.480700 2.113000 
-24.031401 -17.401400 2.113000 
-23.824499 -17.192301 2.113000 
-23.588200 -17.150600 2.113000 
-23.355301 -17.089199 2.113000 
-23.122400 -17.027901 2.113000 
-22.868700 -17.084700 2.113000 
-22.656700 -16.905100 2.103000 
-22.440599 -16.806101 2.103000 
-22.239000 -16.567499 2.103000 
-21.999100 -16.545500 2.103000 
-21.766199 -16.484100 2.103000 
-21.526400 -16.462099 2.103000 
-21.272699 -16.518900 2.103000 
-21.005699 -16.593700 2.103000 
-20.738001 -16.729300 2.113000 
-20.506901 -16.658100 2.113000 
-20.267099 -16.636101 2.113000 
-20.013399 -16.692900 2.113000 
-19.858000 -16.249201 2.103000 
-19.640800 -16.099199 2.103000 
-19.344200 -16.341400 2.103000 
-19.099199 -16.348900 2.113000 
-18.852400 -16.366301 2.113000 
-18.602200 -16.403400 2.113000 
-18.360600 -16.391300 2.113000 
-18.086599 -16.505501 2.113000 
-17.826000 -16.601700 2.113000 
-17.579201 -16.619101 2.123000 
-17.344601 -16.567600 2.123000 
-17.127300 -16.417500 2.113000 
-16.965099 -16.013201 2.113000 
-16.795900 -15.648300 2.103000 
-16.571699 -15.537700 2.103000 
-16.271601 -15.799600 2.103000 
-16.005800 -15.925300 2.113000 
-15.760700 -15.932900 2.113000 
-15.550400 -15.743500 2.113000 
-15.338400 -15.563900 2.103000 
-15.086400 -15.610900 2.103000 
-14.834400 -15.657800 2.113000 
-14.598100 -15.616200 2.113000 
-14.370400 -15.525300 2.113000 
-14.137500 -15.463900 2.113000 
-13.911600 -15.363100 2.103000 
-13.683900 -15.272200 2.103000 
-13.431900 -15.319200 2.103000 
-13.202500 -15.238100 2.103000 
-12.967900 -15.186600 2.103000 
-12.733300 -15.135000 2.103000 
-12.546700 -14.868600 2.103000 
-12.350300 -14.600400 2.103000 
-12.188000 -14.196100 2.093000 
-12.048900 -13.602900 2.083000 
-11.850200 -13.405400 2.073000 
-11.610400 -13.383400 2.083000 
-11.364200 -13.340000 2.083000 
-11.127800 -13.298400 2.083000 
-10.891500 -13.256700 2.083000 
-10.670700 -13.126400 2.073000 
-10.436100 -13.074900 2.073000 
-10.189400 -13.092300 2.073000 
-9.949520 -13.070300 2.073000 
-9.711430 -13.038500 2.083000 
-9.485500 -12.937700 2.073000 
-9.261300 -12.827100 2.073000 
-9.024950 -12.785400 2.073000 
-8.779910 -12.793000 2.073000 
-8.557450 -12.672500 2.073000 
-8.340200 -12.522500 2.073000 
-8.114260 -12.421700 2.073000 
-7.879640 -12.370200 2.073000 
-7.641550 -12.338400 2.073000 
-7.403460 -12.306600 2.073000 
-7.179260 -12.196000 2.073000 
-6.967220 -12.016400 2.073000 
-6.734340 -11.955000 2.063000 
-6.518820 -11.795200 2.063000 
-6.298100 -11.664900 2.063000 
-6.079110 -11.524700 2.063000 
-5.863590 -11.364900 2.063000 
-5.649810 -11.195200 2.053000 
-5.416930 -11.133800 2.053000 
-5.211840 -10.914800 2.053000 
-4.991110 -10.784500 2.053000 
-4.775590 -10.624700 2.053000 
-4.573970 -10.386000 2.043000 
-4.393180 -10.029200 2.043000 
-4.188090 -9.810290 2.033000 
-4.047240 -9.226970 2.023000 
-3.847350 -8.978490 2.023000 
-3.597110 -9.015600 2.023000 
-3.359020 -8.983770 2.023000 
-3.113980 -8.991340 2.023000 
-2.863730 -9.028440 2.023000 
-2.600170 -9.083510 2.033000 
-2.349920 -9.120620 2.033000 
-2.099680 -9.157730 2.033000 
-1.868530 -9.086510 2.033000 
-1.623490 -9.094080 2.033000 
-1.371510 -9.141030 2.033000 
-1.128210 -9.138750 2.033000 
-0.884913 -9.136470 2.033000 
-0.623083 -9.181690 2.033000 
-0.390202 -9.120320 2.033000 
-0.150375 -9.098340 2.033000 
0.087715 -9.066510 2.033000 
0.331015 -9.064230 2.033000 
0.555214 -8.953610 2.033000 
0.796777 -8.941480 2.033000 
1.027920 -8.870260 2.033000 
1.279330 -8.856390 2.033000 
1.517420 -8.824570 2.033000 
1.765930 -8.851830 2.043000 
1.997080 -8.780610 2.033000 
2.254270 -8.857110 2.043000 
2.478470 -8.746500 2.043000 
2.713080 -8.694970 2.043000 
2.949440 -8.653300 2.043000 
3.185790 -8.611620 2.043000 
3.439510 -8.668430 2.043000 
3.675290 -8.565930 2.043000 
3.929010 -8.622730 2.043000 
4.165370 -8.581060 2.043000 
4.380880 -8.421200 2.043000 
4.624180 -8.418920 2.043000 
4.869220 -8.426490 2.043000 
5.115990 -8.443900 2.043000 
5.343660 -8.352980 2.043000 
5.599120 -8.419640 2.043000 
5.831430 -8.297440 2.043000 
6.090360 -8.383790 2.043000 
6.302400 -8.204240 2.043000 
6.561330 -8.290590 2.043000 
6.794210 -8.229220 2.043000 
7.007990 -8.059520 2.043000 
7.230450 -7.939060 2.043000 
7.466800 -7.897380 2.043000 
7.708370 -7.885250 2.043000 
7.947620 -7.802450 2.043000 
8.178770 -7.731230 2.043000 
8.406440 -7.640310 2.033000 
8.644530 -7.608480 2.033000 
8.886090 -7.596350 2.043000 
9.099870 -7.426650 2.033000 
9.334490 -7.375130 2.033000 
9.563330 -7.233230 2.033000 
9.806630 -7.230950 2.033000 
10.036000 -7.149880 2.033000 
10.265400 -7.068820 2.033000 
10.503500 -7.036990 2.033000 
10.723700 -6.845860 2.033000 
10.951400 -6.754940 2.033000 
11.186000 -6.703420 2.033000 
11.411900 -6.602650 2.033000 
11.641300 -6.521580 2.023000 
11.891600 -6.558690 2.033000 
12.117500 -6.457930 2.023000 
12.369500 -6.504890 2.033000 
12.593100 -6.333450 2.023000 
12.810400 -6.183440 2.023000 
13.036300 -6.082680 2.023000 
13.286500 -6.119790 2.023000 
13.513600 -5.968050 2.023000 
13.741300 -5.877130 2.023000 
13.979400 -5.845310 2.023000 
14.221000 -5.833170 2.023000 
14.460800 -5.811190 2.023000 
14.683300 -5.690730 2.023000 
14.915600 -5.568540 2.023000 
15.155400 -5.546560 2.023000 
15.386500 -5.475340 2.023000 
15.619400 -5.413970 2.023000 
15.850600 -5.342750 2.023000 
16.082899 -5.220550 2.023000 
16.303600 -5.090240 2.013000 
16.540001 -5.048570 2.013000 
16.758900 -4.908410 2.013000 
17.001699 -4.845300 2.013000 
17.225901 -4.734690 2.013000 
17.453501 -4.643770 2.013000 
17.682899 -4.562710 2.013000 
17.913500 -4.430660 2.013000 
18.144699 -4.359440 2.013000 
18.375799 -4.288220 2.013000 
18.607000 -4.217000 2.003000 
18.832300 -4.055410 2.003000 
19.061701 -3.974340 2.003000 
19.292299 -3.842300 2.003000 
19.516500 -3.731690 2.003000 
19.749399 -3.670320 2.003000 
19.978800 -3.589250 2.003000 
20.209400 -3.457200 2.003000 
20.445700 -3.415530 2.003000 
20.671700 -3.314760 2.003000 
20.901100 -3.233700 1.993000 
21.143801 -3.170590 1.993000 
21.357599 -3.000890 1.993000 
21.596800 -2.918080 1.993000 
21.822800 -2.817320 1.993000 
22.060801 -2.785490 1.993000 
22.302401 -2.773360 1.993000 
22.545700 -2.771080 1.993000 
22.783800 -2.739250 1.993000 
23.012600 -2.597360 1.993000 
23.252501 -2.575380 1.993000 
23.495800 -2.573090 1.993000 
23.742500 -2.590510 1.993000 
23.987600 -2.598070 1.993000 
24.239599 -2.645030 1.993000 
24.491501 -2.691990 2.003000 
24.734800 -2.689700 2.003000 
24.990299 -2.756360 2.003000 
25.235300 -2.763920 2.003000 
25.493099 -2.901250 2.003000 
25.767700 -3.076230 2.013000 
26.023701 -3.203710 2.013000 
26.282600 -3.290060 2.013000 
26.543301 -3.386250 2.023000 
26.846201 -3.779630 2.023000 
27.093500 -3.857870 2.033000 
27.373899 -4.123220 2.033000 
27.655399 -4.337590 2.043000 
27.923500 -4.534010 2.043000 
28.212601 -4.848600 2.053000 
28.479000 -5.035170 2.053000 
28.748400 -5.180610 2.063000 
29.007900 -5.327780 2.063000 
29.275499 -5.463370 2.063000 
29.538401 -5.630240 2.073000 
29.793900 -5.696890 2.073000 
30.056900 -5.863760 2.073000 
30.310600 -5.920570 2.073000 
30.545799 -5.929870 2.083000 
30.808201 -6.035920 2.083000 
31.049700 -6.023790 2.083000 
31.301701 -6.070740 2.083000 
31.561199 -6.217920 2.083000 
31.801001 -6.195940 2.083000 
32.046101 -6.203500 2.093000 
32.284698 -6.232500 2.093000 
32.519402 -6.180980 2.093000 
32.764400 -6.188540 2.093000 
33.002499 -6.156710 2.093000 
33.243999 -6.144580 2.093000 
33.478699 -6.093060 2.093000 
33.709801 -6.021840 2.093000 
33.951401 -6.009710 2.093000 
34.189499 -5.977880 2.093000 
34.425800 -5.936200 2.093000 
34.670898 -5.943770 2.093000 
34.903702 -5.882400 2.093000 
35.133099 -5.801330 2.093000 
35.373001 -5.779350 2.093000 
35.617401 -5.726090 2.093000 
35.838200 -5.595780 2.093000 
36.074501 -5.554110 2.093000 
36.317799 -5.551820 2.093000 
36.563400 -5.620210 2.093000 
36.805000 -5.608080 2.093000 
37.043098 -5.576250 2.093000 
37.284599 -5.564120 2.093000 
37.533100 -5.591380 2.093000 
37.792599 -5.738560 2.103000 
38.046398 -5.795360 2.103000 
38.279202 -5.733990 2.103000 
38.512100 -5.672620 2.103000 
38.764702 -5.780400 2.103000 
39.000999 -5.738730 2.103000 
39.225201 -5.628110 2.103000 
39.460999 -5.525610 2.103000 
39.695599 -5.474090 2.103000 
39.915798 -5.282960 2.093000 
40.141701 -5.182190 2.093000 
40.372898 -5.110970 2.093000 
40.600498 -5.020060 2.093000 
40.836300 -4.917560 2.093000 
41.070900 -4.866030 2.093000 
41.289902 -4.725880 2.093000 
41.522202 -4.603680 2.093000 
41.734299 -4.424130 2.083000 
41.952702 -4.223150 2.083000 
42.185001 -4.100950 2.083000 
42.398201 -3.870430 2.083000 
42.615501 -3.720420 2.073000 
42.835602 -3.529290 2.073000 
43.050598 -3.308610 2.073000 
43.255100 -3.028850 2.063000 
43.475300 -2.837710 2.063000 
43.684399 -2.526670 2.063000 
43.880299 -2.197660 2.053000 
44.062801 -1.678070 2.043000 
44.123199 3.795580 1.943000 
43.876499 3.813000 1.943000 
44.357899 3.847110 1.943000 
44.609299 3.860970 1.943000 
44.831699 3.981430 1.943000 
45.067501 4.083930 1.943000 
45.282501 4.304610 1.943000 
45.514801 4.426810 1.933000 
45.769100 4.309180 1.943000 
46.017601 4.281920 1.943000 
46.280499 4.115050 1.943000 
46.555698 3.879240 1.953000 
46.813400 3.741910 1.953000 
47.067699 3.624280 1.953000 
47.324902 3.547780 1.963000 
47.577499 3.440000 1.963000 
47.819000 3.452130 1.963000 
48.057098 3.483960 1.963000 
48.275501 3.684940 1.963000 
48.509602 3.797290 1.963000 
48.752300 3.860400 1.963000 
48.975899 4.031830 1.953000 
49.193199 4.181840 1.953000 
49.434200 4.254790 1.953000 
49.661301 4.406540 1.953000 
49.865799 4.686300 1.943000 
50.095798 4.879170 1.943000 
-42.413799 -13.351900 1.733000 
-42.657101 -13.354200 1.733000 
-42.174000 -13.329900 1.733000 
-41.907001 -13.404700 1.743000 
-41.677502 -13.323600 1.743000 
-41.407001 -13.418100 1.743000 
-40.959900 -14.283600 1.763000 
-40.675499 -14.456900 1.763000 
-40.394600 -14.610400 1.763000 
-40.158298 -14.568700 1.763000 
-39.844898 -14.848600 1.773000 
-38.986599 -16.433599 1.803000 
-39.312099 -16.084801 1.803000 
-38.739899 -16.451000 1.803000 
-38.508701 -16.379801 1.803000 
-38.213902 -16.612101 1.813000 
-37.939899 -16.726299 1.813000 
-37.715698 -16.615700 1.813000 
-37.474098 -16.603600 1.813000 
-37.134701 -17.031099 1.823000 
-36.816200 -17.340500 1.833000 
-36.590199 -17.239700 1.833000 
-36.386299 -17.071800 1.823000 
-36.131401 -17.077600 1.823000 
-35.790298 -17.514999 1.833000 
-35.519798 -17.609501 1.843000 
-35.283401 -17.567801 1.843000 
-35.079498 -17.399799 1.833000 
-34.805500 -17.514000 1.843000 
-34.601601 -17.346001 1.833000 
-34.380798 -17.215700 1.833000 
-34.103401 -17.349600 1.843000 
-33.803398 -17.611401 1.843000 
-33.546700 -17.627100 1.843000 
-33.308601 -17.595301 1.843000 
-33.053200 -17.662001 1.843000 
-32.765301 -17.854900 1.853000 
-32.515099 -17.892000 1.853000 
-32.248001 -17.966801 1.853000 
-32.009899 -17.934900 1.853000 
-31.716801 -18.157400 1.863000 
-31.448099 -18.242001 1.863000 
-31.206499 -18.229900 1.863000 
-30.963200 -18.227600 1.863000 
-30.684000 -18.371300 1.873000 
-30.419901 -18.487200 1.873000 
-30.188700 -18.416000 1.873000 
-29.947201 -18.403900 1.873000 
-29.678400 -18.488501 1.873000 
-29.454201 -18.377899 1.873000 
-29.183100 -18.533199 1.873000 
-28.952000 -18.461901 1.873000 
-28.736401 -18.302099 1.873000 
-28.481001 -18.368700 1.873000 
-28.170500 -18.689699 1.883000 
-27.896601 -18.803900 1.883000 
-27.651501 -18.811399 1.883000 
-27.429100 -18.691000 1.883000 
-27.164900 -18.806900 1.893000 
-26.921600 -18.804600 1.893000 
-26.683500 -18.772699 1.893000 
-26.462799 -18.642401 1.883000 
-26.267599 -18.425200 1.883000 
-26.050301 -18.275200 1.883000 
-25.817400 -18.213900 1.883000 
-25.575899 -18.201700 1.883000 
-25.348200 -18.110800 1.883000 
-25.120501 -18.019899 1.883000 
-24.930500 -17.773100 1.873000 
-24.757799 -17.427900 1.873000 
-24.526699 -17.356701 1.873000 
-24.292000 -17.305201 1.873000 
-24.048700 -17.302900 1.873000 
-23.827999 -17.172600 1.873000 
-23.598600 -17.091499 1.863000 
-23.384300 -16.982599 1.863000 
-23.156601 -16.891701 1.863000 
-22.891300 -16.956600 1.863000 
-22.656700 -16.905100 1.863000 
-22.468399 -16.648500 1.863000 
-22.240700 -16.557600 1.863000 
-21.995701 -16.565201 1.863000 
-21.766199 -16.484100 1.863000 
-21.528200 -16.452299 1.863000 
-21.279600 -16.479500 1.863000 
-21.024200 -16.546200 1.863000 
-20.748501 -16.670200 1.873000 
-20.513901 -16.618700 1.873000 
-20.258400 -16.685301 1.873000 
-20.032499 -16.584600 1.873000 
-19.851101 -16.288601 1.863000 
-19.637300 -16.118900 1.863000 
-19.325100 -16.449699 1.873000 
-19.062700 -16.555700 1.873000 
-18.840300 -16.435301 1.873000 
-18.600401 -16.413300 1.873000 
-18.348499 -16.460199 1.873000 
-18.086599 -16.505501 1.873000 
-17.824200 -16.611500 1.873000 
-17.582701 -16.599400 1.883000 
-17.360201 -16.478901 1.873000 
-17.132500 -16.388000 1.873000 
-16.958099 -16.052601 1.873000 
-16.783701 -15.717200 1.863000 
-16.569901 -15.547500 1.863000 
-16.289000 -15.701100 1.863000 
-16.031799 -15.777600 1.863000 
-15.783300 -15.804900 1.873000 
-15.581700 -15.566200 1.863000 
-15.376000 -15.408100 1.863000 
-15.110700 -15.473000 1.863000 
-14.834400 -15.657800 1.873000 
-14.592800 -15.645700 1.873000 
-14.379100 -15.476000 1.863000 
-14.189000 -15.229300 1.863000 
-13.928900 -15.264600 1.863000 
-13.714600 -15.155800 1.863000 
-13.483400 -15.084500 1.863000 
-13.221600 -15.129800 1.863000 
-12.992200 -15.048700 1.863000 
-12.745400 -15.066100 1.863000 
-12.560600 -14.789800 1.863000 
-12.355500 -14.570900 1.853000 
-12.184600 -14.215800 1.853000 
-12.038500 -13.662000 1.843000 
-11.816000 -13.541600 1.843000 
-11.586600 -13.460500 1.843000 
-11.357200 -13.379400 1.843000 
-11.115700 -13.367300 1.843000 
-10.881000 -13.315800 1.843000 
-10.653400 -13.224900 1.833000 
-10.425700 -13.133900 1.833000 
-10.185900 -13.112000 1.833000 
-9.953000 -13.050600 1.833000 
-9.695810 -13.127100 1.843000 
-9.466400 -13.046000 1.843000 
-9.243940 -12.925600 1.833000 
-9.005850 -12.893700 1.833000 
-8.767760 -12.861900 1.833000 
-8.536610 -12.790700 1.833000 
-8.300260 -12.749000 1.833000 
-8.091690 -12.549800 1.833000 
-7.874430 -12.399800 1.833000 
-7.634610 -12.377800 1.833000 
-7.405200 -12.296700 1.833000 
-7.181000 -12.186100 1.833000 
-6.953330 -12.095200 1.833000 
-6.723920 -12.014100 1.833000 
-6.484090 -11.992100 1.833000 
-6.266840 -11.842100 1.823000 
-6.051330 -11.682300 1.823000 
-5.827130 -11.571700 1.823000 
-5.627240 -11.323200 1.823000 
-5.408250 -11.183000 1.813000 
-5.192730 -11.023200 1.813000 
-4.985900 -10.814100 1.813000 
-4.789490 -10.545900 1.803000 
-4.587860 -10.307300 1.803000 
-4.393180 -10.029200 1.803000 
-4.184610 -9.829990 1.793000 
-4.033350 -9.305760 1.783000 
-3.833460 -9.057270 1.783000 
-3.588420 -9.064840 1.783000 
-3.355540 -9.003470 1.783000 
-3.112240 -9.001180 1.783000 
-2.862000 -9.038290 1.783000 
-2.598430 -9.093360 1.783000 
-2.362080 -9.051690 1.783000 
-2.108360 -9.108490 1.793000 
-1.889370 -8.968330 1.783000 
-1.633910 -9.034990 1.793000 
-1.392350 -9.022860 1.793000 
-1.143840 -9.050120 1.793000 
-0.898805 -9.057680 1.793000 
-0.642184 -9.073360 1.793000 
-0.395411 -9.090770 1.793000 
-0.171213 -8.980160 1.793000 
0.077297 -9.007420 1.793000 
0.331015 -9.064230 1.793000 
0.558687 -8.973310 1.793000 
0.807196 -9.000570 1.793000 
1.043550 -8.958900 1.793000 
1.310590 -9.033660 1.803000 
1.536520 -8.932900 1.793000 
1.762460 -8.832130 1.793000 
1.997080 -8.780610 1.793000 
2.233430 -8.738930 1.793000 
2.469780 -8.697260 1.793000 
2.720030 -8.734370 1.803000 
2.956380 -8.692690 1.803000 
3.191000 -8.641170 1.793000 
3.430260 -8.558360 1.793000 
3.675290 -8.565930 1.803000 
3.920330 -8.573490 1.803000 
4.174050 -8.630300 1.803000 
4.410400 -8.588620 1.803000 
4.631130 -8.458310 1.803000 
4.862270 -8.387090 1.803000 
5.089940 -8.296180 1.793000 
5.347140 -8.372680 1.803000 
5.604330 -8.449180 1.803000 
5.833160 -8.307290 1.803000 
6.066050 -8.245920 1.803000 
6.290240 -8.135300 1.803000 
6.533540 -8.133020 1.803000 
6.766420 -8.071650 1.803000 
7.009720 -8.069370 1.803000 
7.261710 -8.116320 1.803000 
7.473750 -7.936770 1.803000 
7.709530 -7.834270 1.793000 
7.947620 -7.802450 1.793000 
8.180500 -7.741070 1.793000 
8.406440 -7.640310 1.793000 
8.639320 -7.578940 1.793000 
8.877410 -7.547110 1.793000 
9.099870 -7.426650 1.793000 
9.336230 -7.384980 1.793000 
9.584160 -7.351410 1.793000 
9.808360 -7.240800 1.793000 
10.034300 -7.140040 1.793000 
10.251600 -6.990030 1.793000 
10.487900 -6.948360 1.793000 
10.717300 -6.867290 1.793000 
10.965300 -6.833720 1.793000 
11.194700 -6.752660 1.793000 
11.436200 -6.740520 1.793000 
11.660400 -6.629910 1.793000 
11.896800 -6.588240 1.793000 
12.127900 -6.517020 1.783000 
12.363700 -6.414520 1.783000 
12.601800 -6.382690 1.783000 
12.836400 -6.331170 1.783000 
13.067600 -6.259950 1.783000 
13.307400 -6.237970 1.783000 
13.540300 -6.176590 1.783000 
13.755200 -5.955920 1.783000 
13.981100 -5.855150 1.783000 
14.214000 -5.793780 1.783000 
14.446900 -5.732410 1.783000 
14.682700 -5.629910 1.783000 
14.913800 -5.558690 1.783000 
15.139800 -5.457930 1.773000 
15.397000 -5.534430 1.783000 
15.628100 -5.463210 1.783000 
15.861000 -5.401840 1.783000 
16.090401 -5.320770 1.783000 
16.324400 -5.208420 1.773000 
16.550400 -5.107650 1.773000 
16.776300 -5.006890 1.773000 
17.013800 -4.914240 1.773000 
17.246700 -4.852870 1.773000 
17.472601 -4.752100 1.773000 
17.698601 -4.651340 1.773000 
17.932600 -4.538990 1.773000 
18.146400 -4.369290 1.763000 
18.361300 -4.148610 1.763000 
18.599400 -4.116780 1.763000 
18.827101 -4.025870 1.763000 
19.065201 -3.994040 1.763000 
19.299801 -3.942520 1.763000 
19.520000 -3.751380 1.763000 
19.754601 -3.699860 1.763000 
19.977100 -3.579400 1.763000 
20.225000 -3.545840 1.763000 
20.442200 -3.395830 1.753000 
20.664700 -3.275370 1.753000 
20.909201 -3.222110 1.753000 
21.140301 -3.150890 1.753000 
21.364500 -3.040280 1.753000 
21.593399 -2.898390 1.753000 
21.831400 -2.866560 1.753000 
22.067801 -2.824880 1.753000 
22.302401 -2.773360 1.753000 
22.542200 -2.751380 1.753000 
22.781500 -2.668580 1.753000 
23.009199 -2.577660 1.753000 
23.252501 -2.575380 1.753000 
23.500999 -2.602640 1.753000 
23.742500 -2.590510 1.753000 
24.001499 -2.676860 1.753000 
24.236099 -2.625330 1.753000 
24.479401 -2.623050 1.753000 
24.726200 -2.640460 1.753000 
24.990299 -2.756360 1.763000 
25.243999 -2.813160 1.763000 
25.489000 -2.820730 1.763000 
25.759001 -3.026990 1.763000 
26.009199 -3.064100 1.773000 
26.284300 -3.299910 1.773000 
26.545000 -3.396100 1.773000 
26.816700 -3.612210 1.783000 
27.088301 -3.828320 1.783000 
27.382000 -4.111640 1.793000 
27.651899 -4.317900 1.803000 
27.914900 -4.484770 1.803000 
28.179001 -4.600660 1.803000 
28.479000 -5.035170 1.813000 
28.744900 -5.160910 1.813000 
29.006100 -5.317930 1.823000 
29.281200 -5.553740 1.823000 
29.536699 -5.620390 1.833000 
29.799700 -5.787260 1.833000 
30.058599 -5.873610 1.833000 
30.301901 -5.871330 1.833000 
30.552700 -5.969260 1.843000 
30.801201 -5.996520 1.843000 
31.057301 -6.124000 1.843000 
31.298800 -6.111870 1.843000 
31.552500 -6.168680 1.843000 
31.794100 -6.156540 1.843000 
32.055302 -6.313570 1.853000 
32.296902 -6.301440 1.853000 
32.545399 -6.328700 1.853000 
32.769600 -6.218080 1.853000 
33.012901 -6.215800 1.853000 
33.252701 -6.193820 1.853000 
33.489101 -6.152150 1.853000 
33.722000 -6.090770 1.853000 
33.961800 -6.068800 1.853000 
34.196400 -6.017270 1.853000 
34.424099 -5.926360 1.853000 
34.662201 -5.894530 1.853000 
34.892700 -5.762480 1.853000 
35.134300 -5.750350 1.853000 
35.374100 -5.728370 1.853000 
35.614498 -5.767220 1.853000 
35.855499 -5.694260 1.853000 
36.072800 -5.544260 1.853000 
36.323002 -5.581370 1.853000 
36.562801 -5.559390 1.853000 
36.799801 -5.578540 1.853000 
37.048302 -5.605800 1.853000 
37.305500 -5.682300 1.853000 
37.542400 -5.701450 1.853000 
37.790901 -5.728710 1.863000 
38.050400 -5.875880 1.863000 
38.276299 -5.775120 1.863000 
38.516201 -5.753140 1.863000 
38.766399 -5.790250 1.863000 
39.006199 -5.768270 1.863000 
39.227001 -5.637960 1.863000 
39.463299 -5.596290 1.863000 
39.696201 -5.534910 1.863000 
39.916401 -5.343780 1.863000 
40.146900 -5.211740 1.853000 
40.388500 -5.199610 1.853000 
40.623100 -5.148080 1.853000 
40.845600 -5.027620 1.853000 
41.067501 -4.846340 1.853000 
41.303799 -4.804660 1.853000 
41.519299 -4.644810 1.853000 
41.755100 -4.542310 1.853000 
41.972401 -4.392300 1.843000 
42.183800 -4.151930 1.843000 
42.397099 -3.921400 1.843000 
42.618900 -3.740120 1.833000 
42.846001 -3.588380 1.833000 
43.052299 -3.318460 1.833000 
43.270699 -3.117480 1.823000 
43.482201 -2.877110 1.823000 
43.680901 -2.506970 1.813000 
43.890701 -2.256750 1.813000 
44.066898 -1.758590 1.803000 
44.140598 3.697100 1.703000 
43.894402 3.653690 1.703000 
44.378700 3.728930 1.703000 
44.608101 3.810000 1.703000 
44.850800 3.873110 1.703000 
45.073299 3.993570 1.703000 
45.298100 4.215980 1.703000 
45.506100 4.476050 1.693000 
45.758099 4.429090 1.693000 
46.011799 4.372290 1.693000 
46.274799 4.205420 1.703000 
46.537701 4.038550 1.703000 
46.802399 3.861830 1.713000 
47.067101 3.685110 1.713000 
47.318001 3.587170 1.713000 
47.567001 3.499090 1.723000 
47.818501 3.512960 1.723000 
48.058300 3.534940 1.723000 
48.282501 3.645550 1.723000 
48.520000 3.738200 1.713000 
48.751099 3.809420 1.713000 
48.980000 3.951310 1.713000 
49.212299 4.073510 1.713000 
49.443401 4.144730 1.713000 
49.666500 4.376990 1.713000 
49.886600 4.568120 1.703000 
50.094601 4.828190 1.703000 
50.280701 5.328090 1.933000 
50.299801 5.219760 1.693000 
-42.454899 -13.176400 1.493000 
-42.689499 -13.227900 1.493000 
-42.193100 -13.221600 1.493000 
-41.967201 -13.120900 1.493000 
-41.720402 -13.138300 1.493000 
-41.444698 -13.262300 1.493000 
-41.126099 -13.571700 1.503000 
-40.824902 -13.782600 1.513000 
-40.528301 -14.024700 1.513000 
-40.232399 -14.206100 1.523000 
-39.966499 -14.331800 1.523000 
-38.750301 -16.391899 1.563000 
-39.026001 -16.267900 1.563000 
-38.507000 -16.389700 1.563000 
-38.268902 -16.357800 1.563000 
-37.959000 -16.618000 1.573000 
-37.703499 -16.684601 1.573000 
-37.489799 -16.514900 1.573000 
-37.157299 -16.903099 1.583000 
-36.814400 -17.350401 1.593000 
-36.572899 -17.338200 1.593000 
-36.353901 -17.198099 1.583000 
-36.133202 -17.067801 1.583000 
-35.807701 -17.416500 1.593000 
-35.514599 -17.639000 1.603000 
-35.285198 -17.557899 1.593000 
-35.047100 -17.526100 1.603000 
-34.789902 -17.602600 1.603000 
-34.576099 -17.432899 1.603000 
-34.382599 -17.205900 1.593000 
-34.115501 -17.280600 1.593000 
-33.794701 -17.660700 1.603000 
-33.534599 -17.696100 1.603000 
-33.287800 -17.713499 1.603000 
-33.046200 -17.701300 1.603000 
-32.758400 -17.894300 1.613000 
-32.496498 -17.939501 1.613000 
-32.263699 -17.878099 1.613000 
-31.997801 -18.003901 1.613000 
-31.711599 -18.187000 1.623000 
-31.437700 -18.301100 1.623000 
-31.199600 -18.269300 1.623000 
-30.961500 -18.237499 1.623000 
-30.663200 -18.489500 1.633000 
-30.387501 -18.613501 1.633000 
-30.188700 -18.416000 1.633000 
-29.926901 -18.461201 1.633000 
-29.671400 -18.527901 1.633000 
-29.445499 -18.427099 1.633000 
-29.176201 -18.572500 1.633000 
-28.950199 -18.471800 1.633000 
-28.739901 -18.282400 1.633000 
-28.475800 -18.398300 1.633000 
-28.141600 -18.796301 1.643000 
-27.882700 -18.882601 1.643000 
-27.644600 -18.850800 1.643000 
-27.418600 -18.750099 1.643000 
-27.164900 -18.806900 1.653000 
-26.908300 -18.822500 1.653000 
-26.688700 -18.743200 1.653000 
-26.455900 -18.681801 1.653000 
-26.271000 -18.405500 1.643000 
-26.039900 -18.334299 1.643000 
-25.820900 -18.194201 1.643000 
-25.627399 -17.967100 1.633000 
-25.432699 -17.689100 1.633000 
-25.182501 -17.726200 1.633000 
-24.976801 -17.568100 1.633000 
-24.768200 -17.368799 1.633000 
-24.571199 -17.161501 1.623000 
-24.311100 -17.196800 1.623000 
-24.052200 -17.283199 1.633000 
-23.838400 -17.113501 1.623000 
-23.605600 -17.052099 1.623000 
-23.419001 -16.785700 1.623000 
-23.177401 -16.773500 1.623000 
-22.956699 -16.643200 1.623000 
-22.730801 -16.542500 1.623000 
-22.473600 -16.618999 1.623000 
-22.230301 -16.616699 1.623000 
-22.061100 -16.251801 1.613000 
-21.785299 -16.375799 1.623000 
-21.517700 -16.511400 1.623000 
-21.245501 -16.615700 1.623000 
-20.993500 -16.662600 1.633000 
-20.725901 -16.798201 1.633000 
-20.525999 -16.549700 1.623000 
-20.261900 -16.665600 1.633000 
-20.035900 -16.564899 1.633000 
-19.854601 -16.268900 1.623000 
-19.639099 -16.108999 1.623000 
-19.339001 -16.370899 1.633000 
-19.035500 -16.652500 1.633000 
-18.843700 -16.415600 1.633000 
-18.595200 -16.442801 1.633000 
-18.344999 -16.479900 1.633000 
-18.090099 -16.485800 1.633000 
-17.829399 -16.582001 1.633000 
-17.582701 -16.599400 1.643000 
-17.349800 -16.538000 1.633000 
-17.127300 -16.417500 1.633000 
-16.951200 -16.091999 1.633000 
-16.765200 -15.764700 1.623000 
-16.569901 -15.547500 1.623000 
-16.305799 -15.663400 1.623000 
-16.038799 -15.738200 1.623000 
-15.798900 -15.716200 1.623000 
-15.578200 -15.585900 1.623000 
-15.336600 -15.573800 1.623000 
-15.096800 -15.551800 1.623000 
-14.817000 -15.756300 1.633000 
-14.596300 -15.626000 1.633000 
-14.387800 -15.426800 1.623000 
-14.167000 -15.296500 1.623000 
-13.934100 -15.235100 1.623000 
-13.701300 -15.173700 1.623000 
-13.464900 -15.132000 1.623000 
-13.228600 -15.090400 1.623000 
-12.992200 -15.048700 1.623000 
-12.736700 -15.115300 1.623000 
-12.546700 -14.868600 1.623000 
-12.352000 -14.590600 1.613000 
-12.171200 -14.233800 1.613000 
-12.031600 -13.701400 1.603000 
-11.814300 -13.551400 1.603000 
-11.572700 -13.539300 1.603000 
-11.360700 -13.359700 1.593000 
-11.108700 -13.406700 1.603000 
-10.872400 -13.365000 1.603000 
-10.648200 -13.254400 1.593000 
-10.401400 -13.271800 1.603000 
-10.163300 -13.240000 1.603000 
-9.930420 -13.178600 1.603000 
-9.701020 -13.097500 1.603000 
-9.445560 -13.164200 1.603000 
-9.219630 -13.063400 1.603000 
-8.983270 -13.021800 1.603000 
-8.750390 -12.960400 1.603000 
-8.533140 -12.810400 1.593000 
-8.288100 -12.817900 1.593000 
-8.051750 -12.776300 1.593000 
-7.841440 -12.586900 1.593000 
-7.608560 -12.525500 1.593000 
-7.384360 -12.414900 1.593000 
-7.144540 -12.392900 1.593000 
-6.916860 -12.302000 1.593000 
-6.696140 -12.171700 1.593000 
-6.475410 -12.041400 1.593000 
-6.252950 -11.920900 1.583000 
-6.035700 -11.770900 1.583000 
-5.809760 -11.670200 1.583000 
-5.599460 -11.480800 1.583000 
-5.396100 -11.252000 1.573000 
-5.187530 -11.052700 1.573000 
-4.980690 -10.843600 1.573000 
-4.792960 -10.526200 1.563000 
-4.591340 -10.287600 1.563000 
-4.381030 -10.098200 1.563000 
-4.175930 -9.879230 1.553000 
-4.028140 -9.335300 1.543000 
-3.835200 -9.047430 1.543000 
-3.593630 -9.035290 1.543000 
-3.336440 -9.111800 1.543000 
-3.087930 -9.139060 1.543000 
-2.832480 -9.205710 1.543000 
-2.593220 -9.122910 1.543000 
-2.360340 -9.061530 1.543000 
-2.123990 -9.019860 1.543000 
-1.882420 -9.007730 1.543000 
-1.623490 -9.094080 1.553000 
-1.376720 -9.111490 1.553000 
-1.129950 -9.128900 1.553000 
-0.869285 -9.225100 1.553000 
-0.628292 -9.152140 1.553000 
-0.404094 -9.041530 1.553000 
-0.160794 -9.039250 1.553000 
0.091188 -9.086210 1.553000 
0.324069 -9.024830 1.553000 
0.570842 -9.042250 1.553000 
0.803723 -8.980870 1.553000 
1.052230 -9.008140 1.553000 
1.301910 -8.984420 1.553000 
1.553890 -9.031380 1.563000 
1.778090 -8.920760 1.553000 
2.012710 -8.869240 1.553000 
2.256000 -8.866960 1.553000 
2.487150 -8.795740 1.553000 
2.733920 -8.813150 1.563000 
2.968540 -8.761630 1.563000 
3.203160 -8.710100 1.563000 
3.436040 -8.648730 1.553000 
3.692660 -8.664410 1.563000 
3.923800 -8.593190 1.563000 
4.170580 -8.610600 1.563000 
4.401720 -8.539380 1.563000 
4.634600 -8.478010 1.563000 
4.865750 -8.406790 1.553000 
5.102100 -8.365110 1.563000 
5.348870 -8.382530 1.563000 
5.573070 -8.271920 1.553000 
5.829690 -8.287590 1.563000 
6.092090 -8.393640 1.563000 
6.319760 -8.302720 1.563000 
6.550910 -8.231500 1.563000 
6.783790 -8.170130 1.563000 
7.020140 -8.128450 1.563000 
7.275600 -8.195110 1.563000 
7.480700 -7.976170 1.563000 
7.709530 -7.834270 1.553000 
7.942410 -7.772900 1.553000 
8.194400 -7.819860 1.563000 
8.430750 -7.778180 1.553000 
8.649740 -7.638030 1.553000 
8.858310 -7.438780 1.553000 
9.085980 -7.347870 1.553000 
9.326970 -7.274910 1.553000 
9.572010 -7.282480 1.553000 
9.808360 -7.240800 1.553000 
10.034300 -7.140040 1.553000 
10.277600 -7.137750 1.553000 
10.494900 -6.987750 1.553000 
10.717300 -6.867290 1.553000 
10.956600 -6.784480 1.543000 
11.187700 -6.713260 1.543000 
11.413600 -6.612500 1.543000 
11.636100 -6.492040 1.543000 
11.872500 -6.450360 1.543000 
12.104800 -6.328170 1.543000 
12.339400 -6.276640 1.543000 
12.570500 -6.205420 1.543000 
12.820800 -6.242530 1.543000 
13.051900 -6.171310 1.543000 
13.284800 -6.109940 1.543000 
13.526400 -6.097810 1.543000 
13.776000 -6.074090 1.543000 
14.010700 -6.022570 1.543000 
14.240100 -5.941500 1.543000 
14.476400 -5.899830 1.543000 
14.691900 -5.739970 1.543000 
