 -4.17549035e+01 -2.43108265e+02 2.26105229e+02
 -3.03235293e+01 -2.44209983e+02 2.49422500e+02
 -1.60808631e+01 -2.39423466e+02 2.67218018e+02
 -6.34998680e+00 -2.42191167e+02 2.86272212e+02
 -5.37044768e+00 -2.42864604e+02 3.00204477e+02
 -2.26838274e+00 -2.40446999e+02 3.13487641e+02
 -3.13491157e+00 -2.45492521e+02 3.23681854e+02
 -9.93736805e+00 -2.44159383e+02 3.39140238e+02
 -2.38277602e+01 -2.35031042e+02 3.49177455e+02
 -3.81670563e+01 -2.34902154e+02 3.60425813e+02
 -5.37189937e+01 -2.37259519e+02 3.62198447e+02
 -8.51860971e+01 -2.36703590e+02 3.62666813e+02
 -9.96219542e+01 -2.36800179e+02 3.66829713e+02
 -1.34476477e+02 -2.33606544e+02 3.65183444e+02
 -1.58807396e+02 -2.29754061e+02 3.61163109e+02
 -1.88855821e+02 -2.37472710e+02 3.54707173e+02
 -2.23627050e+02 -2.34055902e+02 3.49518067e+02
 -2.52552028e+02 -2.31496049e+02 3.34561106e+02
 -2.86275822e+02 -2.39655042e+02 3.26312666e+02
 -3.24828256e+02 -2.36939377e+02 3.09723794e+02
 -3.61697082e+02 -2.35871501e+02 2.98753253e+02
 -4.01739340e+02 -2.31925580e+02 2.78222931e+02
 -4.31664788e+02 -2.34099686e+02 2.66635383e+02
 -2.20246239e+02 -2.37739025e+02 8.28675516e+01
 -1.86640109e+02 -2.45138667e+02 1.00731094e+02
 -1.57735226e+02 -2.52174251e+02 1.20988002e+02
 -1.28956645e+02 -2.51780956e+02 1.44353972e+02
 -9.82896353e+01 -2.52500391e+02 1.64664514e+02
 -7.77434403e+01 -2.58119151e+02 1.86975566e+02
 -5.10998739e+01 -2.60259282e+02 2.08203741e+02
 -4.86319182e+01 -2.56624370e+02 2.26635564e+02
 -3.69323801e+01 -2.60238052e+02 2.48884770e+02
 -2.19764456e+01 -2.69115864e+02 2.64769006e+02
 -5.03581560e+00 -2.64083441e+02 2.82183704e+02
 -8.36905345e+00 -2.63017137e+02 3.04504450e+02
 -7.17201494e+00 -2.62108673e+02 3.11122221e+02
 -1.01867223e+01 -2.62170974e+02 3.22401085e+02
 -1.66891878e+01 -2.62221870e+02 3.40232759e+02
 -2.79065433e+01 -2.64317050e+02 3.47544077e+02
 -4.51455382e+01 -2.61377279e+02 3.56688679e+02
 -5.93535736e+01 -2.61497383e+02 3.63221600e+02
 -8.37103110e+01 -2.57432454e+02 3.60888918e+02
 -1.03462946e+02 -2.56819946e+02 3.61816841e+02
 -1.32851535e+02 -2.53535163e+02 3.61209246e+02
 -1.58047220e+02 -2.55182920e+02 3.62876181e+02
 -1.91076859e+02 -2.47631352e+02 3.51094208e+02
 -2.25924014e+02 -2.45575253e+02 3.41236666e+02
 -2.51219464e+02 -2.50213091e+02 3.36631362e+02
 -2.93901717e+02 -2.43375988e+02 3.25775195e+02
 -3.23994871e+02 -2.39042318e+02 3.10290682e+02
 -3.59290368e+02 -2.38947116e+02 2.98376279e+02
 -3.95352381e+02 -2.40292626e+02 2.81179230e+02
 -4.27904217e+02 -2.34132176e+02 2.57599907e+02
 -2.20148476e+02 -2.53649197e+02 8.28585723e+01
 -1.89165263e+02 -2.56937055e+02 1.06407265e+02
 -1.62855357e+02 -2.59235297e+02 1.16447744e+02
 -1.34430173e+02 -2.60699731e+02 1.39581750e+02
 -1.09305069e+02 -2.65570018e+02 1.61676823e+02
 -8.43935036e+01 -2.70430865e+02 1.83368602e+02
 -6.81999038e+01 -2.78846261e+02 2.09868337e+02
 -5.11409172e+01 -2.79439501e+02 2.24569354e+02
 -2.91606513e+01 -2.83509104e+02 2.47083226e+02
 -2.50700664e+01 -2.85062481e+02 2.62834416e+02
 -1.63927036e+01 -2.79987081e+02 2.82472339e+02
 -1.36047965e+01 -2.85732805e+02 2.95471266e+02
 -1.34541484e+01 -2.86983801e+02 3.14138847e+02
 -1.56771883e+01 -2.82433517e+02 3.24991221e+02
 -2.87632179e+01 -2.87802711e+02 3.37289088e+02
 -4.02830909e+01 -2.85893083e+02 3.40942161e+02
 -4.64241943e+01 -2.82755835e+02 3.49343503e+02
 -6.50023839e+01 -2.82259470e+02 3.63491318e+02
 -9.01162849e+01 -2.74597294e+02 3.61377992e+02
 -1.10280549e+02 -2.77808693e+02 3.59153419e+02
 -1.35414229e+02 -2.69820832e+02 3.57843711e+02
 -1.65960307e+02 -2.67452385e+02 3.59160428e+02
 -1.92011235e+02 -2.62860949e+02 3.48426957e+02
 -2.22404054e+02 -2.62894172e+02 3.46676336e+02
 -2.56998417e+02 -2.60598470e+02 3.36246752e+02
 -2.87915074e+02 -2.47232301e+02 3.23858937e+02
 -3.25730222e+02 -2.45879932e+02 3.12037830e+02
 -3.60431215e+02 -2.40849056e+02 2.95235869e+02
 -3.90871146e+02 -2.31665170e+02 2.81673850e+02
 -4.28913209e+02 -2.28394970e+02 2.65497952e+02
 -2.22890756e+02 -2.58181837e+02 8.36687498e+01
 -1.91430044e+02 -2.62985875e+02 9.99847388e+01
 -1.65049833e+02 -2.65134576e+02 1.14441131e+02
 -1.39653307e+02 -2.76207517e+02 1.41435789e+02
 -1.08915500e+02 -2.85041129e+02 1.59493251e+02
 -9.27939753e+01 -2.84130211e+02 1.78588720e+02
 -6.54568436e+01 -2.93548634e+02 2.04774082e+02
 -6.16141223e+01 -2.95770375e+02 2.23950281e+02
 -3.86953140e+01 -3.07374508e+02 2.45608871e+02
 -2.90712071e+01 -3.08430057e+02 2.56712668e+02
 -2.61857598e+01 -3.05484030e+02 2.69149251e+02
 -1.96414407e+01 -3.04245726e+02 2.95476205e+02
 -1.62456101e+01 -3.11644028e+02 3.06551614e+02
 -2.82922108e+01 -3.08257371e+02 3.23216910e+02
 -3.14349932e+01 -3.08838286e+02 3.32144019e+02
 -4.33069696e+01 -3.14462733e+02 3.41094373e+02
 -5.55954232e+01 -3.04941444e+02 3.52038412e+02
 -7.57241196e+01 -3.01993204e+02 3.58729893e+02
 -9.01377625e+01 -3.00700472e+02 3.58060888e+02
 -1.17314639e+02 -2.96538270e+02 3.60305035e+02
 -1.40096732e+02 -2.86717376e+02 3.61088138e+02
 -1.70390929e+02 -2.82881482e+02 3.56945857e+02
 -2.02371804e+02 -2.79132111e+02 3.49731113e+02
 -2.28770005e+02 -2.70494862e+02 3.45267849e+02
 -2.55996174e+02 -2.65459547e+02 3.36058572e+02
 -2.96086944e+02 -2.58640225e+02 3.20224724e+02
 -3.31310666e+02 -2.53744003e+02 3.08886277e+02
 -3.61017593e+02 -2.36325060e+02 2.93718977e+02
 -3.90513945e+02 -2.38903401e+02 2.83546923e+02
 -4.32150149e+02 -2.29269437e+02 2.65843603e+02
 -2.22317265e+02 -2.54701805e+02 7.97156178e+01
 -1.96939108e+02 -2.69539268e+02 9.93061973e+01
 -1.65402930e+02 -2.75356205e+02 1.18221196e+02
 -1.44308770e+02 -2.85199167e+02 1.36256272e+02
 -1.17417193e+02 -2.96541210e+02 1.58971554e+02
 -9.50207446e+01 -3.02948499e+02 1.82411811e+02
 -7.90662182e+01 -3.12545698e+02 1.99667781e+02
 -5.74786593e+01 -3.15161911e+02 2.17511453e+02
 -4.06585874e+01 -3.24555744e+02 2.39594391e+02
 -4.21570440e+01 -3.25003325e+02 2.54492004e+02
 -3.55899743e+01 -3.30423599e+02 2.69391020e+02
 -3.38756130e+01 -3.28061087e+02 2.90676004e+02
 -2.91028270e+01 -3.33935768e+02 3.04648896e+02
 -3.59998008e+01 -3.34629197e+02 3.16113439e+02
 -3.75827129e+01 -3.39951047e+02 3.27452557e+02
 -4.79386855e+01 -3.23973340e+02 3.35633954e+02
 -7.01928145e+01 -3.28903670e+02 3.48070511e+02
 -8.05949036e+01 -3.25308545e+02 3.51143675e+02
 -1.02096588e+02 -3.27266719e+02 3.60942310e+02
 -1.22339499e+02 -3.17169611e+02 3.56423028e+02
 -1.49694474e+02 -3.14898059e+02 3.53067118e+02
 -1.72071678e+02 -2.97001661e+02 3.49175723e+02
 -2.06285657e+02 -2.95077905e+02 3.48513421e+02
 -2.32284887e+02 -2.81405420e+02 3.42588234e+02
 -2.62267058e+02 -2.74462858e+02 3.31263613e+02
 -2.93384821e+02 -2.67931761e+02 3.18094050e+02
 -3.31187579e+02 -2.56536324e+02 3.12005706e+02
 -3.58246822e+02 -2.47590930e+02 2.97954073e+02
 -3.94732500e+02 -2.32671057e+02 2.81846730e+02
 -4.19193539e+02 -2.20921653e+02 2.60639168e+02
 -2.28179587e+02 -2.64205642e+02 7.88597924e+01
 -1.98512920e+02 -2.78091795e+02 1.00838864e+02
 -1.70991072e+02 -2.92169109e+02 1.14527939e+02
 -1.43704885e+02 -3.04093397e+02 1.34240943e+02
 -1.23757590e+02 -3.15799890e+02 1.54334276e+02
 -9.65966178e+01 -3.22865574e+02 1.78500474e+02
 -8.30236181e+01 -3.29943420e+02 1.90440985e+02
 -7.06158826e+01 -3.40269139e+02 2.15951826e+02
 -5.48707854e+01 -3.48525600e+02 2.34596197e+02
 -4.81413345e+01 -3.52175367e+02 2.53610620e+02
 -4.19524996e+01 -3.55731652e+02 2.65794326e+02
 -4.27660867e+01 -3.55163728e+02 2.89088852e+02
 -4.73032348e+01 -3.55038304e+02 2.98024254e+02
 -4.07191686e+01 -3.60747715e+02 3.10436251e+02
 -5.21053610e+01 -3.55204964e+02 3.17363404e+02
 -6.23013050e+01 -3.55154330e+02 3.30943138e+02
 -7.61425366e+01 -3.49606417e+02 3.43605395e+02
 -9.05099704e+01 -3.47212299e+02 3.40463367e+02
 -1.07899917e+02 -3.39687682e+02 3.53217716e+02
 -1.28033424e+02 -3.35092741e+02 3.45825737e+02
 -1.61931838e+02 -3.31355683e+02 3.45762002e+02
 -1.80491088e+02 -3.19518954e+02 3.48350821e+02
 -2.10428318e+02 -3.04417161e+02 3.45532494e+02
 -2.38821072e+02 -3.01267260e+02 3.40589930e+02
 -2.70133547e+02 -2.86253255e+02 3.27275148e+02
 -2.95742510e+02 -2.74549244e+02 3.20733665e+02
 -3.34330614e+02 -2.62387398e+02 3.05501503e+02
 -3.62401338e+02 -2.48126776e+02 2.97270857e+02
 -3.95443323e+02 -2.32473494e+02 2.81487778e+02
 -4.22530143e+02 -2.23437206e+02 2.64042229e+02
 -2.33683846e+02 -2.73156609e+02 8.19607101e+01
 -1.96944363e+02 -2.80432744e+02 9.21912539e+01
 -1.69514916e+02 -2.99077877e+02 1.15906511e+02
 -1.54122611e+02 -3.08724145e+02 1.34474523e+02
 -1.35824957e+02 -3.27769259e+02 1.56827999e+02
 -1.11576707e+02 -3.34964503e+02 1.69229276e+02
 -9.37451577e+01 -3.45775516e+02 1.98338686e+02
 -7.74533286e+01 -3.53346168e+02 2.08178960e+02
 -6.67973121e+01 -3.61110050e+02 2.24585985e+02
 -5.95813583e+01 -3.69178659e+02 2.44102436e+02
 -5.48833103e+01 -3.75261110e+02 2.65689522e+02
 -5.40542926e+01 -3.80164139e+02 2.80703580e+02
 -5.21140205e+01 -3.87141786e+02 2.91981457e+02
 -6.08275973e+01 -3.81879163e+02 3.09719616e+02
 -6.52889868e+01 -3.83018939e+02 3.18463457e+02
 -6.91673582e+01 -3.79089883e+02 3.34835241e+02
 -8.09367475e+01 -3.74212034e+02 3.35627734e+02
 -1.06502723e+02 -3.71527714e+02 3.39477030e+02
 -1.22288693e+02 -3.62678700e+02 3.47932485e+02
 -1.42048216e+02 -3.60613987e+02 3.45035051e+02
 -1.68569518e+02 -3.39234644e+02 3.52863384e+02
 -1.91625811e+02 -3.30462901e+02 3.40567786e+02
 -2.13636924e+02 -3.22105781e+02 3.38477060e+02
 -2.44005367e+02 -3.07428106e+02 3.36148790e+02
 -2.76728029e+02 -2.97347090e+02 3.24847696e+02
 -3.04980455e+02 -2.77492696e+02 3.21787479e+02
 -3.35955048e+02 -2.68376039e+02 3.04513839e+02
 -3.64851702e+02 -2.44700907e+02 2.97925922e+02
 -3.97915945e+02 -2.40795152e+02 2.79005891e+02
 -4.22151478e+02 -2.19852202e+02 2.64458703e+02
 -2.32439188e+02 -2.73969257e+02 7.88768314e+01
 -1.98199482e+02 -2.97239335e+02 9.62076753e+01
 -1.83346606e+02 -3.11149087e+02 1.12966535e+02
 -1.58423860e+02 -3.22731107e+02 1.31594384e+02
 -1.41635032e+02 -3.39615159e+02 1.51006479e+02
 -1.22937579e+02 -3.55413777e+02 1.73893339e+02
 -1.03520176e+02 -3.62113438e+02 1.86333743e+02
 -8.80352028e+01 -3.76179928e+02 2.04150647e+02
 -8.30557585e+01 -3.85086790e+02 2.26985355e+02
 -7.37006994e+01 -3.92718521e+02 2.38782443e+02
 -6.87086583e+01 -4.00082107e+02 2.53197482e+02
 -6.51033919e+01 -4.00994414e+02 2.75332320e+02
 -6.32706099e+01 -4.05028789e+02 2.89103337e+02
 -7.16707361e+01 -4.10883905e+02 2.99758242e+02
 -7.57201250e+01 -4.08148324e+02 3.15261069e+02
 -8.80869250e+01 -4.05161731e+02 3.17777852e+02
 -1.01837385e+02 -4.02875950e+02 3.27887101e+02
 -1.13142694e+02 -3.93817594e+02 3.34184969e+02
 -1.35169928e+02 -3.87933208e+02 3.38575775e+02
 -1.50218297e+02 -3.75322114e+02 3.44808297e+02
 -1.75039619e+02 -3.60067132e+02 3.45116741e+02
 -1.96331610e+02 -3.53529322e+02 3.50248835e+02
 -2.22965917e+02 -3.37853888e+02 3.39404336e+02
 -2.49967281e+02 -3.22206303e+02 3.31185610e+02
 -2.78382079e+02 -3.07668242e+02 3.23446339e+02
 -3.09427803e+02 -2.93688395e+02 3.14256768e+02
 -3.40090225e+02 -2.72440072e+02 3.08852258e+02
 -3.66691303e+02 -2.51038045e+02 2.90945434e+02
 -3.92884543e+02 -2.36635831e+02 2.86091959e+02
 -4.22425263e+02 -2.18584103e+02 2.64066722e+02
 -2.41596910e+02 -2.77432688e+02 7.61908056e+01
 -2.10265853e+02 -3.00332448e+02 9.02830169e+01
 -1.80559048e+02 -3.14424504e+02 1.13533259e+02
 -1.63726265e+02 -3.27839938e+02 1.28213335e+02
 -1.43952318e+02 -3.58905023e+02 1.44973016e+02
 -1.29231291e+02 -3.66458346e+02 1.58216424e+02
 -1.16436437e+02 -3.85250810e+02 1.87702884e+02
 -1.00063787e+02 -3.94603632e+02 2.01041908e+02
 -9.53259816e+01 -4.02977768e+02 2.16845029e+02
 -8.53270900e+01 -4.20138071e+02 2.34714623e+02
 -7.17116010e+01 -4.25836173e+02 2.53915136e+02
 -8.01514103e+01 -4.29823824e+02 2.65969739e+02
 -7.77241787e+01 -4.32469207e+02 2.87553877e+02
 -8.30772227e+01 -4.34144846e+02 2.87727980e+02
 -9.07574296e+01 -4.25759144e+02 3.04084990e+02
 -1.00173316e+02 -4.31381739e+02 3.13919521e+02
 -1.08882207e+02 -4.22864848e+02 3.24197200e+02
 -1.29814474e+02 -4.10910685e+02 3.26717886e+02
 -1.48435659e+02 -4.05426332e+02 3.33017213e+02
 -1.71207152e+02 -3.92179498e+02 3.35365681e+02
 -1.85358257e+02 -3.82483453e+02 3.40346686e+02
 -2.09233560e+02 -3.67686024e+02 3.36310072e+02
 -2.31625221e+02 -3.54925916e+02 3.37317071e+02
 -2.60496119e+02 -3.34077357e+02 3.32520220e+02
 -2.87840090e+02 -3.13531496e+02 3.22145404e+02
 -3.07960903e+02 -2.93498416e+02 3.16542540e+02
 -3.40053633e+02 -2.77818383e+02 3.06121885e+02
 -3.73775473e+02 -2.54150985e+02 2.94811884e+02
 -3.91595409e+02 -2.36170053e+02 2.80223898e+02
 -4.18486985e+02 -2.12720514e+02 2.66915742e+02
 -2.40613627e+02 -2.89769408e+02 7.66436415e+01
 -2.15210790e+02 -3.05343721e+02 9.18102745e+01
 -1.94726889e+02 -3.26298198e+02 1.07244768e+02
 -1.76944228e+02 -3.51794802e+02 1.25996402e+02
 -1.55633709e+02 -3.63892218e+02 1.44321460e+02
 -1.36373801e+02 -3.86441465e+02 1.59054684e+02
 -1.26317650e+02 -4.03546521e+02 1.73151999e+02
 -1.15338377e+02 -4.13427958e+02 1.90917917e+02
 -1.04284646e+02 -4.30862634e+02 2.09096884e+02
 -1.03563868e+02 -4.39545544e+02 2.29155922e+02
 -9.55735720e+01 -4.50821682e+02 2.41991833e+02
 -1.01775405e+02 -4.52796488e+02 2.61032732e+02
 -9.85932891e+01 -4.52614257e+02 2.72020291e+02
 -1.01551380e+02 -4.55591966e+02 2.84337935e+02
 -1.11949749e+02 -4.49748629e+02 3.02749196e+02
 -1.17430894e+02 -4.47249168e+02 3.01586449e+02
 -1.29952025e+02 -4.46328429e+02 3.18906504e+02
 -1.48072378e+02 -4.36784715e+02 3.21281648e+02
 -1.60925405e+02 -4.25622826e+02 3.28245688e+02
 -1.85436634e+02 -4.13223882e+02 3.33898865e+02
 -1.94031313e+02 -3.99099759e+02 3.39750030e+02
 -2.22342244e+02 -3.79630798e+02 3.31699092e+02
 -2.44567589e+02 -3.64822931e+02 3.34189203e+02
 -2.71276232e+02 -3.46596246e+02 3.25043026e+02
 -2.97132308e+02 -3.28590453e+02 3.19165318e+02
 -3.24960372e+02 -3.05457815e+02 3.20025037e+02
 -3.43204349e+02 -2.79756533e+02 3.06977430e+02
 -3.67614319e+02 -2.63632794e+02 2.95785157e+02
 -3.91325324e+02 -2.36834312e+02 2.82631809e+02
 -4.20920722e+02 -2.17150527e+02 2.71458957e+02
 -2.45031016e+02 -2.86105954e+02 7.19264750e+01
 -2.24788945e+02 -3.11905683e+02 9.16646061e+01
 -2.00470593e+02 -3.40474917e+02 1.07644098e+02
 -1.82101845e+02 -3.63728000e+02 1.16625818e+02
 -1.67915583e+02 -3.84808681e+02 1.36339473e+02
 -1.52733849e+02 -4.05563926e+02 1.52416868e+02
 -1.36365198e+02 -4.13199493e+02 1.63349167e+02
 -1.32573121e+02 -4.38750840e+02 1.84653740e+02
 -1.20302142e+02 -4.53030666e+02 2.02147422e+02
 -1.20325426e+02 -4.63098161e+02 2.21463874e+02
 -1.19669548e+02 -4.67395689e+02 2.37498232e+02
 -1.15030674e+02 -4.80405245e+02 2.50897476e+02
 -1.19807064e+02 -4.81656040e+02 2.64602551e+02
 -1.21064523e+02 -4.80950390e+02 2.81088595e+02
 -1.27358704e+02 -4.78456529e+02 2.88624008e+02
 -1.33579503e+02 -4.73605695e+02 2.97160509e+02
 -1.48101148e+02 -4.70148699e+02 3.06115304e+02
 -1.59738972e+02 -4.59074340e+02 3.15891205e+02
 -1.76544443e+02 -4.50138755e+02 3.18216901e+02
 -1.99275261e+02 -4.35875943e+02 3.26112209e+02
 -2.12503732e+02 -4.21014441e+02 3.24780706e+02
 -2.35668214e+02 -4.01281141e+02 3.28323022e+02
 -2.54639899e+02 -3.81725140e+02 3.22846878e+02
 -2.80552256e+02 -3.61882616e+02 3.19503227e+02
 -3.02974169e+02 -3.35278975e+02 3.17146394e+02
 -3.30054311e+02 -3.14935798e+02 3.10338854e+02
 -3.46413227e+02 -2.89054081e+02 2.98016671e+02
 -3.69557467e+02 -2.60855606e+02 2.89894725e+02
 -3.94305610e+02 -2.32764669e+02 2.75867045e+02
 -4.25392226e+02 -2.09330490e+02 2.67595558e+02
 -2.39666239e+02 -2.97303817e+02 7.08692301e+01
 -2.25356552e+02 -3.19778989e+02 8.43884125e+01
 -2.13056366e+02 -3.47295376e+02 1.02806760e+02
 -1.91186908e+02 -3.73966995e+02 1.16389421e+02
 -1.84648332e+02 -3.99048667e+02 1.34647421e+02
 -1.66700397e+02 -4.17078212e+02 1.50077256e+02
 -1.52986194e+02 -4.35643858e+02 1.64201929e+02
 -1.42499785e+02 -4.49003454e+02 1.81326714e+02
 -1.44508419e+02 -4.67863864e+02 1.97358823e+02
 -1.35533188e+02 -4.83661154e+02 2.12584991e+02
 -1.36912896e+02 -4.97328700e+02 2.29089721e+02
 -1.34501125e+02 -4.93906928e+02 2.41044144e+02
 -1.36679420e+02 -5.01044140e+02 2.56626437e+02
 -1.46010552e+02 -5.01387018e+02 2.69403832e+02
 -1.53758419e+02 -4.99064901e+02 2.82498314e+02
 -1.59826064e+02 -4.99917213e+02 2.90683333e+02
 -1.68337006e+02 -4.92747269e+02 2.95918106e+02
 -1.86325668e+02 -4.82221197e+02 3.08695090e+02
 -1.98345934e+02 -4.71125930e+02 3.13145089e+02
 -2.11877144e+02 -4.52845558e+02 3.18054963e+02
 -2.30019936e+02 -4.37164245e+02 3.17536314e+02
 -2.48061039e+02 -4.14517630e+02 3.23589167e+02
 -2.71610050e+02 -3.97183342e+02 3.17797463e+02
 -2.90048659e+02 -3.69749344e+02 3.19729596e+02
 -3.09537536e+02 -3.53877589e+02 3.11655070e+02
 -3.34079018e+02 -3.22066611e+02 3.08065914e+02
 -3.55223057e+02 -2.98127644e+02 3.01492768e+02
 -3.70943232e+02 -2.66190090e+02 2.92766728e+02
 -4.00159183e+02 -2.38773524e+02 2.81823308e+02
 -4.15122450e+02 -2.12906241e+02 2.68624824e+02
 -2.51637760e+02 -2.97187327e+02 6.88419353e+01
 -2.30863426e+02 -3.21149903e+02 7.70126367e+01
 -2.15188424e+02 -3.47296748e+02 9.46223825e+01
 -2.03193864e+02 -3.81467879e+02 1.12703388e+02
 -1.91649856e+02 -4.08428273e+02 1.21816435e+02
 -1.75798904e+02 -4.31104806e+02 1.36931601e+02
 -1.70750318e+02 -4.56862965e+02 1.55900236e+02
 -1.68700507e+02 -4.72950919e+02 1.68495211e+02
 -1.59044575e+02 -4.86484516e+02 1.83124978e+02
 -1.60168232e+02 -5.07720113e+02 2.00536296e+02
 -1.57955338e+02 -5.11856566e+02 2.18762140e+02
 -1.55674721e+02 -5.17460344e+02 2.33964983e+02
 -1.59798334e+02 -5.28178057e+02 2.48130855e+02
 -1.62086627e+02 -5.22344798e+02 2.56322731e+02
 -1.74126837e+02 -5.26603636e+02 2.69839054e+02
 -1.84246003e+02 -5.22551484e+02 2.82496091e+02
 -1.84351546e+02 -5.14521227e+02 2.89202205e+02
 -1.94484018e+02 -5.09171443e+02 2.94631748e+02
 -2.14225687e+02 -4.86198601e+02 3.00274763e+02
 -2.27444039e+02 -4.71988785e+02 3.09663940e+02
 -2.41978908e+02 -4.54664167e+02 3.10022411e+02
 -2.62651264e+02 -4.35380808e+02 3.15746923e+02
 -2.80852700e+02 -4.09657311e+02 3.16586472e+02
 -2.97459958e+02 -3.79586399e+02 3.13329172e+02
 -3.18440366e+02 -3.55324751e+02 3.02796470e+02
 -3.34548903e+02 -3.24102635e+02 3.05817880e+02
 -3.59838883e+02 -2.97701402e+02 2.93718958e+02
 -3.84150651e+02 -2.72401703e+02 2.89388826e+02
 -3.96179306e+02 -2.39432988e+02 2.82878503e+02
 -4.09626941e+02 -2.07399486e+02 2.68456678e+02
 -2.50661059e+02 -3.01659038e+02 7.24972443e+01
 -2.40410836e+02 -3.31211073e+02 8.18378089e+01
 -2.21345906e+02 -3.59648866e+02 9.26959345e+01
 -2.15886529e+02 -3.97037366e+02 1.06579668e+02
 -2.05270285e+02 -4.22289130e+02 1.15143541e+02
 -1.94260770e+02 -4.42359064e+02 1.33189020e+02
 -1.86934542e+02 -4.70259978e+02 1.50565485e+02
 -1.78039682e+02 -4.89252133e+02 1.62721596e+02
 -1.80451427e+02 -5.06608722e+02 1.79332216e+02
 -1.79677290e+02 -5.14741777e+02 1.96825136e+02
 -1.72250421e+02 -5.33628815e+02 2.03049253e+02
 -1.75404687e+02 -5.43873087e+02 2.22326803e+02
 -1.77616702e+02 -5.40008838e+02 2.42192314e+02
 -1.85540132e+02 -5.48880149e+02 2.46411451e+02
 -1.92414466e+02 -5.47087344e+02 2.58343405e+02
 -1.96374698e+02 -5.49170532e+02 2.70310387e+02
 -2.11457763e+02 -5.30841010e+02 2.82353295e+02
 -2.21915269e+02 -5.23037794e+02 2.83798145e+02
 -2.32535428e+02 -5.06015099e+02 2.91633270e+02
 -2.49390531e+02 -4.85035623e+02 3.02783713e+02
 -2.63607031e+02 -4.67828358e+02 3.00519880e+02
 -2.80323027e+02 -4.40271781e+02 3.04600984e+02
 -2.94271212e+02 -4.22683532e+02 3.05740889e+02
 -3.11995589e+02 -3.95989978e+02 3.04136279e+02
 -3.25749860e+02 -3.61491032e+02 3.05382392e+02
 -3.47511719e+02 -3.30956378e+02 3.04867607e+02
 -3.66629144e+02 -3.02930005e+02 2.97873886e+02
 -3.81394230e+02 -2.66798199e+02 2.84867073e+02
 -3.97008600e+02 -2.32450340e+02 2.81032837e+02
 -4.15032261e+02 -2.05128326e+02 2.75243923e+02
 -2.56389775e+02 -3.07253914e+02 6.43520924e+01
 -2.45036112e+02 -3.37309739e+02 7.39353875e+01
 -2.37446063e+02 -3.73799483e+02 8.84518088e+01
 -2.23235738e+02 -4.07052817e+02 9.83837201e+01
 -2.13169006e+02 -4.39342757e+02 1.09468309e+02
 -2.10383706e+02 -4.59646288e+02 1.22029152e+02
 -2.05351935e+02 -4.90262389e+02 1.41303367e+02
 -1.98802175e+02 -5.03795674e+02 1.56698838e+02
 -1.93511289e+02 -5.25375565e+02 1.72291937e+02
 -1.95963726e+02 -5.42275265e+02 1.82718088e+02
 -2.02287823e+02 -5.53662601e+02 1.97532247e+02
 -2.04461187e+02 -5.60684889e+02 2.15822680e+02
 -2.01677582e+02 -5.67039597e+02 2.26617792e+02
 -2.14736994e+02 -5.74467921e+02 2.37637696e+02
 -2.13619467e+02 -5.66712634e+02 2.43902287e+02
 -2.21306927e+02 -5.66438607e+02 2.61129961e+02
 -2.36938659e+02 -5.54502022e+02 2.66783047e+02
 -2.36439197e+02 -5.40667091e+02 2.78215587e+02
 -2.52025342e+02 -5.28368016e+02 2.83760716e+02
 -2.61805130e+02 -5.08002413e+02 2.89784860e+02
 -2.82089661e+02 -4.84456349e+02 2.95155689e+02
 -2.93534748e+02 -4.58140358e+02 2.95092147e+02
 -3.10517024e+02 -4.32213998e+02 2.98180711e+02
 -3.21409944e+02 -4.07587844e+02 2.96314154e+02
 -3.35182392e+02 -3.73669067e+02 2.98063832e+02
 -3.43173031e+02 -3.41298505e+02 3.02601809e+02
 -3.63855792e+02 -3.05208921e+02 2.89494562e+02
 -3.83805591e+02 -2.72945442e+02 2.89319643e+02
 -3.94595510e+02 -2.41002177e+02 2.83394292e+02
 -4.08170794e+02 -1.99732611e+02 2.75798597e+02
 -2.61946194e+02 -3.09190053e+02 6.98538957e+01
 -2.58273935e+02 -3.43169454e+02 7.44205254e+01
 -2.49608681e+02 -3.82405509e+02 7.89701760e+01
 -2.40375319e+02 -4.10042331e+02 9.60139973e+01
 -2.31899763e+02 -4.44528203e+02 1.04826967e+02
 -2.25696416e+02 -4.74924888e+02 1.18561578e+02
 -2.26114876e+02 -4.97445082e+02 1.34100315e+02
 -2.18227339e+02 -5.25668041e+02 1.40259241e+02
 -2.18675373e+02 -5.44000422e+02 1.54019889e+02
 -2.23104191e+02 -5.61761892e+02 1.71446050e+02
 -2.20493974e+02 -5.78060260e+02 1.86500117e+02
 -2.26819677e+02 -5.84886489e+02 1.98338908e+02
 -2.26175871e+02 -5.98495907e+02 2.15416724e+02
 -2.34681294e+02 -5.92469013e+02 2.24814358e+02
 -2.42518064e+02 -5.87173100e+02 2.34552233e+02
 -2.44157913e+02 -5.84407983e+02 2.47118357e+02
 -2.52645641e+02 -5.76044206e+02 2.59045136e+02
 -2.61059799e+02 -5.64741461e+02 2.67371441e+02
 -2.78838012e+02 -5.42814716e+02 2.75306814e+02
 -2.87575106e+02 -5.24186262e+02 2.78622377e+02
 -2.98727657e+02 -5.01584598e+02 2.85997628e+02
 -3.07161098e+02 -4.77673285e+02 2.90366110e+02
 -3.19954455e+02 -4.45418689e+02 2.93161027e+02
 -3.36202831e+02 -4.17204248e+02 2.97433590e+02
 -3.48482812e+02 -3.81716406e+02 2.96310500e+02
 -3.57659006e+02 -3.52618840e+02 2.90427174e+02
 -3.80201653e+02 -3.09842293e+02 2.87737832e+02
 -3.83728044e+02 -2.74438982e+02 2.87754403e+02
 -3.90660262e+02 -2.38387942e+02 2.80380858e+02
 -4.11512104e+02 -1.98675779e+02 2.71068277e+02
 -2.75528957e+02 -3.12761863e+02 6.20028248e+01
 -2.66265072e+02 -3.51875844e+02 6.99378588e+01
 -2.52880390e+02 -3.87658777e+02 7.78127254e+01
 -2.48483517e+02 -4.24949971e+02 9.04424684e+01
 -2.50060002e+02 -4.55563470e+02 1.01208819e+02
 -2.43319646e+02 -4.91522059e+02 1.09478244e+02
 -2.43091266e+02 -5.14921709e+02 1.21261067e+02
 -2.44294957e+02 -5.41257140e+02 1.37121074e+02
 -2.43333519e+02 -5.59484840e+02 1.48092635e+02
 -2.42785239e+02 -5.75021006e+02 1.59926852e+02
 -2.45017638e+02 -5.88959509e+02 1.73845904e+02
 -2.50142072e+02 -6.03505641e+02 1.88366469e+02
 -2.52277041e+02 -6.06754072e+02 1.97921771e+02
 -2.57380647e+02 -6.09407802e+02 2.15116506e+02
 -2.64574737e+02 -6.07518390e+02 2.23825281e+02
 -2.73577979e+02 -6.04192981e+02 2.41074971e+02
 -2.81113149e+02 -5.95956514e+02 2.46987262e+02
 -2.88489240e+02 -5.86413877e+02 2.57036640e+02
 -3.01751563e+02 -5.64848784e+02 2.69893388e+02
 -3.04685562e+02 -5.43861131e+02 2.71592563e+02
 -3.23642984e+02 -5.17072893e+02 2.80969200e+02
 -3.27208193e+02 -4.88062988e+02 2.83951297e+02
 -3.34634655e+02 -4.58278122e+02 2.85844781e+02
 -3.42834511e+02 -4.22070428e+02 2.85371401e+02
 -3.57097601e+02 -3.87611806e+02 2.98371782e+02
 -3.66485855e+02 -3.55830090e+02 2.88255967e+02
 -3.79551272e+02 -3.13658076e+02 2.86864811e+02
 -3.87233900e+02 -2.78447346e+02 2.81761616e+02
 -3.90233757e+02 -2.38039011e+02 2.79360435e+02
 -4.06770126e+02 -2.00046663e+02 2.74480032e+02
 -2.68158740e+02 -3.21197340e+02 6.21737486e+01
 -2.70209074e+02 -3.58397696e+02 6.43505956e+01
 -2.67831382e+02 -3.95284915e+02 7.12729633e+01
 -2.65405660e+02 -4.30494036e+02 8.13709634e+01
 -2.63385076e+02 -4.67775328e+02 9.31933954e+01
 -2.64215411e+02 -5.01409753e+02 1.04817867e+02
 -2.62161718e+02 -5.29905967e+02 1.12482165e+02
 -2.60529193e+02 -5.55344017e+02 1.26465396e+02
 -2.62608650e+02 -5.77981266e+02 1.39073632e+02
 -2.65175786e+02 -5.96790908e+02 1.54750048e+02
 -2.70609935e+02 -6.17931493e+02 1.60609734e+02
 -2.71105594e+02 -6.20378311e+02 1.75816201e+02
 -2.79657079e+02 -6.29209606e+02 1.85170193e+02
 -2.89786623e+02 -6.30710154e+02 2.03162947e+02
 -2.89488351e+02 -6.30356395e+02 2.13443518e+02
 -2.94916778e+02 -6.23957070e+02 2.24882886e+02
 -3.09233607e+02 -6.12166749e+02 2.29340305e+02
 -3.16282060e+02 -5.98663269e+02 2.46183822e+02
 -3.26975286e+02 -5.81119278e+02 2.52488047e+02
 -3.27862379e+02 -5.56614486e+02 2.62918308e+02
 -3.37515998e+02 -5.31386608e+02 2.67382711e+02
 -3.48189484e+02 -5.00234945e+02 2.71082529e+02
 -3.50698236e+02 -4.66487674e+02 2.79702022e+02
 -3.60770873e+02 -4.40200963e+02 2.79247249e+02
 -3.70137676e+02 -3.99445779e+02 2.80466164e+02
 -3.79176894e+02 -3.58187378e+02 2.87704250e+02
 -3.85598716e+02 -3.25344866e+02 2.80818649e+02
 -3.97235408e+02 -2.74361897e+02 2.80308922e+02
 -3.97717437e+02 -2.36355041e+02 2.87075521e+02
 -4.03623900e+02 -1.99781606e+02 2.78089383e+02
 -2.80155901e+02 -3.22392445e+02 5.49469980e+01
 -2.74857033e+02 -3.67784884e+02 5.71220577e+01
 -2.80139849e+02 -4.01341530e+02 7.12652209e+01
 -2.76604938e+02 -4.46856032e+02 7.08284642e+01
 -2.78436415e+02 -4.75566828e+02 8.54798514e+01
 -2.85606672e+02 -5.11987543e+02 9.34965360e+01
 -2.90000191e+02 -5.41143325e+02 1.03311757e+02
 -2.82722977e+02 -5.68705818e+02 1.11257460e+02
 -2.89204270e+02 -5.91085598e+02 1.28853939e+02
 -2.87982276e+02 -6.11441850e+02 1.32147166e+02
 -2.98886311e+02 -6.27971041e+02 1.57028927e+02
 -3.00366498e+02 -6.44109774e+02 1.63061955e+02
 -3.02534882e+02 -6.47068523e+02 1.72597687e+02
 -3.11808378e+02 -6.46176376e+02 1.86811132e+02
 -3.19696680e+02 -6.47537058e+02 1.97923487e+02
 -3.26053470e+02 -6.35565786e+02 2.11743485e+02
 -3.28836201e+02 -6.28464934e+02 2.20441723e+02
 -3.41214410e+02 -6.13786142e+02 2.32467265e+02
 -3.43613479e+02 -5.93167290e+02 2.46522881e+02
 -3.47120705e+02 -5.70067602e+02 2.51963426e+02
 -3.56633365e+02 -5.40496793e+02 2.58956625e+02
 -3.60584109e+02 -5.18861089e+02 2.65521963e+02
 -3.66175882e+02 -4.75680789e+02 2.71065862e+02
 -3.76786062e+02 -4.43201938e+02 2.76099969e+02
 -3.78966993e+02 -4.07505323e+02 2.77210993e+02
 -3.87631705e+02 -3.63651369e+02 2.84727347e+02
 -3.85593121e+02 -3.24899644e+02 2.80630910e+02
 -3.99001971e+02 -2.80940901e+02 2.77772407e+02
 -3.99772853e+02 -2.39724098e+02 2.74882809e+02
 -3.97394156e+02 -1.95805018e+02 2.76037769e+02
 -2.80705725e+02 -3.24326131e+02 4.96765868e+01
 -2.93501243e+02 -3.69662246e+02 5.62763108e+01
 -2.87866682e+02 -4.15362717e+02 6.10233195e+01
 -2.92998844e+02 -4.49512028e+02 6.85185082e+01
 -2.96200312e+02 -4.87969648e+02 8.09736817e+01
 -2.96580401e+02 -5.25917841e+02 8.73169943e+01
 -3.03880421e+02 -5.55353825e+02 9.80980507e+01
 -3.07998776e+02 -5.83450476e+02 1.05759454e+02
 -3.13448179e+02 -6.02687286e+02 1.13486453e+02
 -3.18758165e+02 -6.28458154e+02 1.29744776e+02
 -3.23050635e+02 -6.44026844e+02 1.36013219e+02
 -3.33086750e+02 -6.54350084e+02 1.50513700e+02
 -3.35101901e+02 -6.68204866e+02 1.58538847e+02
 -3.37855141e+02 -6.67058492e+02 1.76017187e+02
 -3.46039029e+02 -6.58314593e+02 1.80475750e+02
 -3.53830129e+02 -6.49667237e+02 2.00255783e+02
 -3.61502379e+02 -6.46126359e+02 2.07375072e+02
 -3.64905612e+02 -6.28243610e+02 2.21564042e+02
 -3.70584492e+02 -6.08976152e+02 2.33209361e+02
 -3.70130273e+02 -5.86610889e+02 2.38899703e+02
 -3.81135746e+02 -5.58114115e+02 2.51138888e+02
 -3.79949928e+02 -5.26767981e+02 2.56001655e+02
 -3.87460154e+02 -4.86257199e+02 2.64810234e+02
 -3.92859945e+02 -4.54457997e+02 2.71086345e+02
 -3.94564595e+02 -4.11454864e+02 2.76504349e+02
 -3.94067725e+02 -3.75039357e+02 2.80041117e+02
 -3.92087966e+02 -3.22722305e+02 2.75444897e+02
 -3.97224297e+02 -2.82312330e+02 2.81634264e+02
 -4.00923264e+02 -2.41486750e+02 2.81300154e+02
 -3.97253748e+02 -1.90193109e+02 2.81507496e+02
 -2.92857971e+02 -3.29176185e+02 4.81577818e+01
 -2.94039541e+02 -3.75174191e+02 5.24677217e+01
 -3.05124124e+02 -4.16520184e+02 5.87935979e+01
 -3.05498829e+02 -4.54647483e+02 6.31906595e+01
 -3.15756140e+02 -4.94751456e+02 6.83341188e+01
 -3.16267992e+02 -5.33841708e+02 7.38028784e+01
 -3.26598410e+02 -5.68736896e+02 8.39964402e+01
 -3.31675531e+02 -5.92651999e+02 9.55152012e+01
 -3.38860977e+02 -6.26249810e+02 1.04357097e+02
 -3.47643151e+02 -6.38793052e+02 1.10696682e+02
 -3.47278647e+02 -6.56636781e+02 1.21671030e+02
 -3.55870281e+02 -6.61620425e+02 1.39224242e+02
 -3.67044163e+02 -6.84711455e+02 1.46426459e+02
 -3.71902720e+02 -6.73939686e+02 1.60608651e+02
 -3.75107657e+02 -6.73036709e+02 1.68681006e+02
 -3.80014200e+02 -6.68198341e+02 1.84820600e+02
 -3.88185735e+02 -6.59398163e+02 1.95753028e+02
 -3.91369685e+02 -6.40821223e+02 2.07238223e+02
 -3.99054533e+02 -6.26594034e+02 2.15946607e+02
 -3.97750767e+02 -5.96328852e+02 2.29208726e+02
 -4.00940657e+02 -5.70201015e+02 2.37054275e+02
 -4.06060675e+02 -5.33079775e+02 2.49133275e+02
 -4.09990712e+02 -4.96383805e+02 2.54675651e+02
 -4.04375544e+02 -4.62107994e+02 2.57015623e+02
 -4.08498269e+02 -4.19371371e+02 2.66162340e+02
 -4.09158550e+02 -3.74590751e+02 2.70426480e+02
 -4.06274793e+02 -3.29470638e+02 2.75190255e+02
 -3.98853594e+02 -2.89184821e+02 2.75506635e+02
 -3.94075099e+02 -2.41317260e+02 2.75595113e+02
 -3.96999326e+02 -1.93001463e+02 2.80778307e+02
 -2.99658008e+02 -3.29044267e+02 4.29749321e+01
 -3.04919173e+02 -3.76457144e+02 4.91483616e+01
 -3.18473550e+02 -4.18293206e+02 5.19727380e+01
 -3.24790943e+02 -4.65320512e+02 5.67449541e+01
 -3.28938780e+02 -5.02558916e+02 5.42621069e+01
 -3.37321625e+02 -5.48019130e+02 6.12939226e+01
 -3.45569865e+02 -5.78298437e+02 7.02493012e+01
 -3.59570192e+02 -6.07344502e+02 8.11363575e+01
 -3.60041424e+02 -6.31635960e+02 9.57040963e+01
 -3.64391331e+02 -6.52090868e+02 1.03225076e+02
 -3.78017247e+02 -6.70002065e+02 1.14107769e+02
 -3.86539019e+02 -6.82174478e+02 1.16335267e+02
 -3.89574048e+02 -6.89283174e+02 1.33629248e+02
 -3.97066591e+02 -6.88414360e+02 1.43120818e+02
 -4.01405868e+02 -6.95376787e+02 1.61936641e+02
 -4.11182077e+02 -6.83976651e+02 1.70375296e+02
 -4.14203101e+02 -6.69189825e+02 1.81795367e+02
 -4.15848043e+02 -6.54894957e+02 1.88880432e+02
 -4.26025480e+02 -6.29757485e+02 2.07658921e+02
 -4.18362906e+02 -6.01549971e+02 2.18588681e+02
 -4.19499478e+02 -5.78560365e+02 2.27340532e+02
 -4.20772290e+02 -5.42387357e+02 2.42270643e+02
 -4.24398132e+02 -5.03422786e+02 2.46764686e+02
 -4.20763657e+02 -4.65668847e+02 2.53129951e+02
 -4.10407629e+02 -4.24821061e+02 2.60717779e+02
 -4.13614229e+02 -3.79928496e+02 2.67009429e+02
 -4.12088563e+02 -3.33307015e+02 2.70235179e+02
 -4.03596512e+02 -2.86703634e+02 2.78922998e+02
 -3.93018593e+02 -2.36633104e+02 2.83153833e+02
 -3.89867869e+02 -1.87704642e+02 2.79081564e+02
 -2.99954949e+02 -3.35955363e+02 4.54868442e+01
 -3.17116098e+02 -3.77555166e+02 4.66171459e+01
 -3.23862827e+02 -4.28795614e+02 4.58095709e+01
 -3.36008363e+02 -4.69928901e+02 4.43730024e+01
 -3.49093904e+02 -5.15968701e+02 5.17305561e+01
 -3.55100904e+02 -5.44471374e+02 5.32725624e+01
 -3.71192776e+02 -5.82212341e+02 6.28856009e+01
 -3.77331931e+02 -6.09636585e+02 7.06473536e+01
 -3.85297525e+02 -6.41741855e+02 8.01943161e+01
 -3.94420584e+02 -6.63051111e+02 8.88007535e+01
 -4.08685523e+02 -6.84671805e+02 9.71673247e+01
 -4.11831978e+02 -6.96048274e+02 1.09537104e+02
 -4.20563007e+02 -7.03146033e+02 1.23893207e+02
 -4.24503873e+02 -7.00215677e+02 1.34736407e+02
 -4.27195708e+02 -6.94565502e+02 1.45410494e+02
 -4.42092196e+02 -6.92432430e+02 1.59802142e+02
 -4.42575382e+02 -6.80472218e+02 1.66894590e+02
 -4.45435810e+02 -6.62837102e+02 1.79806175e+02
 -4.48106442e+02 -6.42595070e+02 1.90831743e+02
 -4.42502909e+02 -6.15555986e+02 2.01676417e+02
 -4.47506751e+02 -5.84899268e+02 2.11136095e+02
 -4.44194461e+02 -5.48157431e+02 2.27405542e+02
 -4.34899732e+02 -5.15105652e+02 2.37971642e+02
 -4.32933018e+02 -4.68940967e+02 2.49822473e+02
 -4.26794982e+02 -4.28488391e+02 2.55616502e+02
 -4.26408482e+02 -3.79816314e+02 2.62210150e+02
 -4.15461890e+02 -3.36382510e+02 2.65909401e+02
 -4.05240712e+02 -2.91076372e+02 2.71817047e+02
 -4.05209998e+02 -2.34513868e+02 2.74379785e+02
 -3.90401023e+02 -1.85140927e+02 2.81376528e+02
 -3.09819253e+02 -3.37746241e+02 4.23071948e+01
 -3.24638040e+02 -3.84630480e+02 4.08135749e+01
 -3.35195794e+02 -4.30340107e+02 3.73876951e+01
 -3.48619144e+02 -4.74210696e+02 4.41359443e+01
 -3.60722953e+02 -5.09246156e+02 4.48862220e+01
 -3.78914093e+02 -5.53266069e+02 4.34639422e+01
 -3.91324173e+02 -5.96140155e+02 4.55562083e+01
 -4.03384760e+02 -6.23799948e+02 5.84950275e+01
 -4.13508317e+02 -6.47448949e+02 6.86741792e+01
 -4.24159492e+02 -6.69674357e+02 7.26126122e+01
 -4.36247993e+02 -6.83937592e+02 8.40773327e+01
 -4.46011598e+02 -7.04781788e+02 9.06950327e+01
 -4.46008888e+02 -7.16832758e+02 1.01835393e+02
 -4.56363179e+02 -7.13555308e+02 1.17279731e+02
 -4.65690221e+02 -7.15170584e+02 1.33265201e+02
 -4.75210979e+02 -6.97027977e+02 1.41343797e+02
 -4.71921850e+02 -6.86970798e+02 1.60956285e+02
 -4.71721927e+02 -6.74326145e+02 1.67916837e+02
 -4.67814804e+02 -6.53337892e+02 1.83209875e+02
 -4.67905207e+02 -6.26902645e+02 1.93477227e+02
 -4.68475351e+02 -5.87466767e+02 2.12939425e+02
 -4.59730755e+02 -5.58265047e+02 2.22511181e+02
 -4.58423627e+02 -5.19325239e+02 2.27557867e+02
 -4.46218812e+02 -4.76071627e+02 2.45902396e+02
 -4.41780607e+02 -4.35208972e+02 2.47130749e+02
 -4.30187724e+02 -3.87959183e+02 2.58025446e+02
 -4.26132137e+02 -3.35125913e+02 2.66891230e+02
 -4.14168567e+02 -2.89789553e+02 2.74041645e+02
 -4.02246224e+02 -2.43104978e+02 2.80027067e+02
 -3.82907064e+02 -1.87452165e+02 2.83934647e+02
 -3.13996926e+02 -3.38521555e+02 3.84511134e+01
 -3.30555882e+02 -3.85476815e+02 4.20282159e+01
 -3.48822493e+02 -4.40716693e+02 3.38087199e+01
 -3.61362536e+02 -4.79236773e+02 3.39678332e+01
 -3.74377130e+02 -5.21008318e+02 3.22628540e+01
 -3.91222118e+02 -5.54393851e+02 3.59755549e+01
 -4.18496453e+02 -5.97949950e+02 4.24953618e+01
 -4.22331599e+02 -6.30104708e+02 4.97126068e+01
 -4.43074527e+02 -6.59564107e+02 5.60918949e+01
 -4.52971337e+02 -6.79711866e+02 5.84092161e+01
 -4.63412657e+02 -7.01442433e+02 7.48001901e+01
 -4.74987819e+02 -7.12229106e+02 8.09626542e+01
 -4.81936172e+02 -7.17964934e+02 9.82206470e+01
 -4.90923345e+02 -7.24239883e+02 9.84764669e+01
 -4.92864720e+02 -7.28915154e+02 1.10119227e+02
 -4.96684006e+02 -7.14876089e+02 1.24123953e+02
 -4.98053969e+02 -6.97894698e+02 1.39611632e+02
 -5.04742945e+02 -6.85790040e+02 1.56350828e+02
 -4.97181140e+02 -6.58200708e+02 1.68560963e+02
 -4.96435866e+02 -6.30944315e+02 1.80822407e+02
 -4.84497421e+02 -6.03565264e+02 1.89576875e+02
 -4.81674654e+02 -5.62443996e+02 2.07612312e+02
 -4.72295915e+02 -5.22120563e+02 2.19442314e+02
 -4.66688990e+02 -4.82350336e+02 2.35397093e+02
 -4.57009940e+02 -4.31311640e+02 2.46338208e+02
 -4.40207445e+02 -3.89943607e+02 2.55609868e+02
 -4.30239261e+02 -3.39054954e+02 2.67787190e+02
 -4.16291306e+02 -2.91567678e+02 2.65753210e+02
 -3.95259212e+02 -2.40820864e+02 2.78527184e+02
 -3.83807777e+02 -1.89433236e+02 2.79238603e+02
 -3.20963407e+02 -3.33973265e+02 3.25716272e+01
 -3.38563212e+02 -3.89405531e+02 3.26816835e+01
 -3.58440853e+02 -4.33824513e+02 2.52955844e+01
 -3.81248255e+02 -4.81315638e+02 2.63932989e+01
 -3.92879576e+02 -5.24203121e+02 2.41428974e+01
 -4.13579233e+02 -5.65720102e+02 2.70962348e+01
 -4.31977840e+02 -5.97495085e+02 2.62661261e+01
 -4.50085323e+02 -6.37064557e+02 3.48057034e+01
 -4.64358504e+02 -6.61671940e+02 4.31896318e+01
 -4.81434505e+02 -6.85693810e+02 5.43709479e+01
 -4.97153958e+02 -7.01905509e+02 5.71180046e+01
 -5.01749465e+02 -7.14999247e+02 7.36503681e+01
 -5.09666542e+02 -7.27329082e+02 7.70918390e+01
 -5.18193703e+02 -7.29093988e+02 8.56755835e+01
 -5.25238624e+02 -7.21739052e+02 9.62162432e+01
 -5.27912510e+02 -7.14610530e+02 1.11976772e+02
 -5.32942146e+02 -7.02622259e+02 1.29800505e+02
 -5.21166806e+02 -6.83197814e+02 1.45339094e+02
 -5.21713410e+02 -6.59333708e+02 1.55579158e+02
 -5.12678726e+02 -6.32713372e+02 1.68581718e+02
 -5.19000350e+02 -6.05278196e+02 1.82223456e+02
 -5.03131742e+02 -5.70964528e+02 1.94404874e+02
 -4.96881535e+02 -5.27230030e+02 2.12528669e+02
 -4.81134179e+02 -4.87548131e+02 2.24786676e+02
 -4.67057736e+02 -4.40980182e+02 2.35005739e+02
 -4.47245806e+02 -3.86230200e+02 2.52249550e+02
 -4.33848415e+02 -3.46265801e+02 2.61967883e+02
 -4.20090208e+02 -2.85776793e+02 2.72020404e+02
 -3.96694781e+02 -2.31000796e+02 2.76164476e+02
 -3.80736444e+02 -1.85237689e+02 2.85506515e+02
 -3.29797041e+02 -3.41631423e+02 2.93624147e+01
 -3.45410755e+02 -3.89025580e+02 3.00500094e+01
 -3.68754224e+02 -4.33899947e+02 2.64264490e+01
 -3.96350215e+02 -4.80658008e+02 1.69407294e+01
 -4.18169749e+02 -5.23964409e+02 1.85954751e+01
 -4.35221077e+02 -5.66403840e+02 1.72646769e+01
 -4.57840455e+02 -6.09426944e+02 2.03302796e+01
 -4.72072316e+02 -6.34332924e+02 2.36171347e+01
 -4.90043771e+02 -6.60115515e+02 2.95235843e+01
 -5.06672790e+02 -6.88276836e+02 3.65286861e+01
 -5.25153026e+02 -7.04381351e+02 4.15831177e+01
 -5.29384885e+02 -7.23721992e+02 5.47271448e+01
 -5.36117415e+02 -7.31413455e+02 5.82054967e+01
 -5.53672243e+02 -7.31823757e+02 7.17135461e+01
 -5.54327032e+02 -7.27722442e+02 8.42595830e+01
 -5.55198930e+02 -7.25365908e+02 1.01120761e+02
 -5.56246447e+02 -7.08831821e+02 1.14506251e+02
 -5.51575647e+02 -6.86074113e+02 1.27340139e+02
 -5.54861140e+02 -6.70356635e+02 1.44997975e+02
 -5.42650165e+02 -6.36647828e+02 1.65012236e+02
 -5.34603599e+02 -6.07016047e+02 1.73470369e+02
 -5.23590269e+02 -5.78332635e+02 1.85590672e+02
 -5.11566517e+02 -5.31703716e+02 2.04261703e+02
 -4.97960774e+02 -4.82743275e+02 2.17347903e+02
 -4.79019242e+02 -4.36901202e+02 2.33446219e+02
 -4.65049084e+02 -3.89097376e+02 2.45629731e+02
 -4.41679624e+02 -3.43722088e+02 2.60050556e+02
 -4.25914247e+02 -2.88586274e+02 2.71743932e+02
 -3.98743626e+02 -2.38834282e+02 2.77131910e+02
 -3.79296889e+02 -1.85131967e+02 2.84411981e+02
 -3.35974941e+02 -3.39537215e+02 2.73849717e+01
 -3.58019743e+02 -3.90839431e+02 2.63966207e+01
 -3.80156204e+02 -4.38394356e+02 1.59176077e+01
 -4.06105997e+02 -4.86069814e+02 1.51183397e+01
 -4.32716611e+02 -5.32618724e+02 9.48993545e+00
 -4.60363316e+02 -5.67651854e+02 1.02150867e+01
 -4.77694502e+02 -6.04124451e+02 4.23234814e+00
 -5.02518779e+02 -6.34320753e+02 1.57125475e+01
 -5.21228640e+02 -6.67963808e+02 1.24513203e+01
 -5.36425969e+02 -6.87525274e+02 2.33206207e+01
 -5.50425334e+02 -7.07291259e+02 2.84570606e+01
 -5.61458915e+02 -7.20016516e+02 4.10252333e+01
 -5.73561634e+02 -7.27836713e+02 4.30912283e+01
 -5.70734418e+02 -7.36819367e+02 5.71045917e+01
 -5.82498428e+02 -7.33813543e+02 7.31266275e+01
 -5.86332157e+02 -7.20128014e+02 8.55554396e+01
 -5.87769104e+02 -7.06996017e+02 1.05078181e+02
 -5.84687088e+02 -6.93607108e+02 1.09462643e+02
 -5.74708279e+02 -6.68782057e+02 1.29560017e+02
 -5.67539328e+02 -6.39987525e+02 1.49766473e+02
 -5.54538433e+02 -6.16915224e+02 1.62101160e+02
 -5.43651293e+02 -5.70359880e+02 1.81479312e+02
 -5.29109647e+02 -5.28348684e+02 1.97196778e+02
 -5.12800538e+02 -4.85552707e+02 2.12328505e+02
 -4.92432251e+02 -4.40153842e+02 2.24272453e+02
 -4.63983688e+02 -3.93584542e+02 2.38075307e+02
 -4.48534704e+02 -3.40615171e+02 2.51654626e+02
 -4.23977357e+02 -2.88401296e+02 2.68697073e+02
 -4.04069351e+02 -2.43015620e+02 2.79807784e+02
 -3.77081395e+02 -1.89249279e+02 2.92848154e+02
 -3.35333683e+02 -3.40391697e+02 2.46334866e+01
 -3.62813584e+02 -3.93858779e+02 1.88548596e+01
 -3.94787033e+02 -4.36286042e+02 1.74976191e+01
 -4.25258306e+02 -4.86372909e+02 8.58588673e+00
 -4.50512504e+02 -5.32102544e+02 -2.58236360e+00
 -4.69817990e+02 -5.66256468e+02 3.27567138e+00
 -4.96251870e+02 -6.06355505e+02 3.40733635e-01
 -5.23830473e+02 -6.42824473e+02 -3.26059968e+00
 -5.39371359e+02 -6.67940942e+02 -1.54241078e+00
 -5.64109457e+02 -6.94868065e+02 9.18193876e+00
 -5.67832180e+02 -7.10955770e+02 1.83897395e+01
 -5.93341943e+02 -7.19862887e+02 1.54877490e+01
 -5.98444261e+02 -7.34604812e+02 3.05688795e+01
 -6.07083369e+02 -7.36673411e+02 4.46700317e+01
 -6.08969482e+02 -7.37349521e+02 5.68394343e+01
 -6.12069293e+02 -7.19705547e+02 7.19112304e+01
 -6.08865671e+02 -7.12611841e+02 8.88958939e+01
 -6.10280734e+02 -6.90919406e+02 9.82694641e+01
 -6.05324181e+02 -6.73892245e+02 1.19998465e+02
 -5.90903224e+02 -6.36172518e+02 1.31816152e+02
 -5.73345547e+02 -6.04562573e+02 1.51832400e+02
 -5.65054651e+02 -5.70889706e+02 1.69904406e+02
 -5.48806707e+02 -5.31157899e+02 1.88847117e+02
 -5.22921711e+02 -4.87667193e+02 2.00429259e+02
 -5.03690846e+02 -4.37937098e+02 2.18328743e+02
 -4.79482696e+02 -3.94887852e+02 2.34209151e+02
 -4.49693286e+02 -3.47590566e+02 2.47187635e+02
 -4.23360336e+02 -2.87928168e+02 2.64873252e+02
 -3.95943189e+02 -2.43817419e+02 2.79099884e+02
 -3.75070453e+02 -1.90074777e+02 2.89322910e+02
 -3.40708024e+02 -3.42669585e+02 2.57505706e+01
 -3.74948290e+02 -3.90696165e+02 2.07129882e+01
 -4.07344617e+02 -4.39344249e+02 1.62540087e+00
 -4.39398872e+02 -4.84592917e+02 -2.53640295e+00
 -4.70599739e+02 -5.22845790e+02 -1.77105708e+00
 -4.95033473e+02 -5.71690698e+02 -9.43253012e+00
 -5.24408053e+02 -6.00122774e+02 -1.50860072e+01
 -5.41942602e+02 -6.39248120e+02 -1.09231038e+01
 -5.60878457e+02 -6.67944934e+02 -1.14125503e+01
 -5.84784626e+02 -6.92157089e+02 -1.96366155e+00
 -6.04010337e+02 -7.02173267e+02 2.36799571e+00
 -6.18941576e+02 -7.23662880e+02 1.01903710e+01
 -6.27451918e+02 -7.33861419e+02 2.32987471e+01
 -6.35100244e+02 -7.32938204e+02 3.30309796e+01
 -6.41693226e+02 -7.22378576e+02 4.45835486e+01
 -6.39926250e+02 -7.22472497e+02 5.73394358e+01
 -6.38581469e+02 -7.13774409e+02 7.08136263e+01
 -6.40193424e+02 -6.94044923e+02 8.50897141e+01
 -6.25530201e+02 -6.64470069e+02 1.02452775e+02
 -6.14097935e+02 -6.43092681e+02 1.20021502e+02
 -6.04764710e+02 -6.03100491e+02 1.39308480e+02
 -5.88166974e+02 -5.73676647e+02 1.59615019e+02
 -5.63652964e+02 -5.29708374e+02 1.77492522e+02
 -5.41240000e+02 -4.90331322e+02 1.99079295e+02
 -5.16928513e+02 -4.39002581e+02 2.14976990e+02
 -4.88240738e+02 -3.92434224e+02 2.30017864e+02
 -4.59539859e+02 -3.41198832e+02 2.47880636e+02
 -4.36294354e+02 -2.96660646e+02 2.59353019e+02
 -4.04029648e+02 -2.41086404e+02 2.77512301e+02
 -3.72185893e+02 -1.90401067e+02 2.90367882e+02
 -3.49472429e+02 -3.40385920e+02 2.28187747e+01
 -3.83223077e+02 -3.88990194e+02 7.39220067e+00
 -4.19080868e+02 -4.37868551e+02 -4.24560423e+00
 -4.46185586e+02 -4.83134376e+02 -5.68386498e+00
 -4.78691544e+02 -5.29785973e+02 -1.04031081e+01
 -5.13191351e+02 -5.65659747e+02 -2.27067266e+01
 -5.43617204e+02 -6.02931176e+02 -1.88878232e+01
 -5.71004030e+02 -6.30694882e+02 -2.56532090e+01
 -5.88808097e+02 -6.61625997e+02 -2.23018493e+01
 -6.15370894e+02 -6.84801869e+02 -1.73837122e+01
 -6.28808542e+02 -7.03983742e+02 -1.05587573e+01
 -6.38104476e+02 -7.19179410e+02 -6.83197860e+00
 -6.60262695e+02 -7.28196163e+02 5.50651872e+00
 -6.58792464e+02 -7.29873864e+02 1.89749397e+01
 -6.68733363e+02 -7.28578971e+02 3.08838470e+01
 -6.66985223e+02 -7.16251542e+02 4.36528964e+01
 -6.66697804e+02 -7.00438778e+02 6.02930223e+01
 -6.55550343e+02 -6.87569718e+02 7.61066321e+01
 -6.48469582e+02 -6.66215821e+02 9.13882491e+01
 -6.37217232e+02 -6.34273793e+02 1.15994402e+02
 -6.19939796e+02 -6.03508983e+02 1.34572730e+02
 -6.05851574e+02 -5.62888547e+02 1.45027228e+02
 -5.78565930e+02 -5.26719509e+02 1.71781173e+02
 -5.50708076e+02 -4.83194020e+02 1.92635039e+02
 -5.29326445e+02 -4.38556163e+02 2.12588218e+02
 -4.96131393e+02 -3.88422776e+02 2.25155939e+02
 -4.70224768e+02 -3.43766746e+02 2.43335279e+02
 -4.31844224e+02 -2.85425202e+02 2.58186863e+02
 -4.03111988e+02 -2.41666161e+02 2.75570310e+02
 -3.65733451e+02 -1.89539363e+02 2.93270464e+02
 -3.49665975e+02 -3.34054722e+02 1.70596764e+01
 -3.89647969e+02 -3.84735029e+02 2.85792923e+00
 -4.29903360e+02 -4.38514495e+02 -1.10075280e+01
 -4.65109113e+02 -4.81041074e+02 -1.60705543e+01
 -4.99398967e+02 -5.24968295e+02 -2.12770422e+01
 -5.30056717e+02 -5.64410597e+02 -3.02894877e+01
 -5.58146880e+02 -5.92643017e+02 -3.42244475e+01
 -5.90217004e+02 -6.32655169e+02 -3.08839557e+01
 -6.15116877e+02 -6.55496529e+02 -3.09819132e+01
 -6.40756391e+02 -6.79841994e+02 -2.92050989e+01
 -6.54364364e+02 -6.96227042e+02 -2.43861136e+01
 -6.68063459e+02 -7.14421765e+02 -1.11209839e+01
 -6.83514801e+02 -7.23819374e+02 -1.09469437e+01
 -6.86812798e+02 -7.20743791e+02 2.92090493e+00
 -6.98527206e+02 -7.24694371e+02 1.58578680e+01
 -6.93631202e+02 -7.13569516e+02 2.40629290e+01
 -6.92121675e+02 -6.98639488e+02 4.18245386e+01
 -6.83846030e+02 -6.85745132e+02 6.18529326e+01
 -6.73851170e+02 -6.55260470e+02 8.09103007e+01
 -6.58027728e+02 -6.34597285e+02 1.00837893e+02
 -6.40780904e+02 -5.97342072e+02 1.18391512e+02
 -6.24256680e+02 -5.65763807e+02 1.38939482e+02
 -5.95367849e+02 -5.28184627e+02 1.66674806e+02
 -5.69840255e+02 -4.81150051e+02 1.85923137e+02
 -5.37688918e+02 -4.34054455e+02 2.09992101e+02
 -5.02111690e+02 -3.89036709e+02 2.24042752e+02
 -4.68805530e+02 -3.45925302e+02 2.39812989e+02
 -4.33655561e+02 -2.91958519e+02 2.59050595e+02
 -4.07393466e+02 -2.35329398e+02 2.79410111e+02
 -3.67569038e+02 -1.87181584e+02 2.95728685e+02
 -3.61001035e+02 -3.32976967e+02 1.49670196e+01
 -3.95210890e+02 -3.81807210e+02 -5.00824879e-01
 -4.37488959e+02 -4.34354071e+02 -1.28153164e+01
 -4.70066533e+02 -4.72878636e+02 -2.21635290e+01
 -5.13155932e+02 -5.17187633e+02 -2.84958573e+01
 -5.46173279e+02 -5.55380903e+02 -4.14561938e+01
 -5.77457323e+02 -5.91080804e+02 -3.88943699e+01
 -6.03216236e+02 -6.24898685e+02 -4.29483774e+01
 -6.37694409e+02 -6.50510324e+02 -4.76469628e+01
 -6.57871475e+02 -6.76249362e+02 -3.65255270e+01
 -6.80284240e+02 -6.94401946e+02 -4.09372493e+01
 -6.92252016e+02 -7.05319757e+02 -3.07031065e+01
 -7.09061061e+02 -7.12460631e+02 -2.30883170e+01
 -7.20566500e+02 -7.12372195e+02 -9.86885719e+00
 -7.18488644e+02 -7.11534085e+02 3.84473245e+00
 -7.19902699e+02 -7.02518592e+02 1.62724101e+01
 -7.19702235e+02 -6.94258753e+02 2.86715751e+01
 -7.12073917e+02 -6.75309639e+02 5.26067473e+01
 -6.90957035e+02 -6.50978030e+02 7.14774825e+01
 -6.83375771e+02 -6.25875005e+02 8.70457267e+01
 -6.63443018e+02 -5.91439740e+02 1.04877832e+02
 -6.40524651e+02 -5.58292925e+02 1.32188605e+02
 -6.05687302e+02 -5.19513672e+02 1.57795543e+02
 -5.83637712e+02 -4.80908972e+02 1.79970188e+02
 -5.47719300e+02 -4.38601971e+02 1.94808126e+02
 -5.16882862e+02 -3.86812782e+02 2.18978123e+02
 -4.79532285e+02 -3.36930246e+02 2.40694043e+02
 -4.39694598e+02 -2.91756715e+02 2.61040440e+02
 -3.99594202e+02 -2.40606388e+02 2.73870392e+02
 -3.65212128e+02 -1.88551880e+02 2.94293764e+02
 -3.64529139e+02 -3.31958053e+02 1.03748605e+01
 -4.01740267e+02 -3.77738711e+02 -1.39128907e+00
 -4.44556324e+02 -4.30234793e+02 -1.27409566e+01
 -4.86677190e+02 -4.68266943e+02 -2.78116551e+01
 -5.22799340e+02 -5.13988463e+02 -3.90968760e+01
 -5.63315581e+02 -5.52350918e+02 -4.21862149e+01
 -5.98907965e+02 -5.81546496e+02 -5.38721378e+01
 -6.28944762e+02 -6.12065617e+02 -4.91989483e+01
 -6.56178859e+02 -6.40262352e+02 -5.63924030e+01
 -6.76446788e+02 -6.63032221e+02 -5.77579032e+01
 -7.03041700e+02 -6.83454103e+02 -5.17780628e+01
 -7.25173914e+02 -6.91359543e+02 -4.62014342e+01
 -7.28427462e+02 -6.98698935e+02 -3.41526362e+01
 -7.43912677e+02 -7.05864223e+02 -2.11746774e+01
 -7.46417658e+02 -7.08740876e+02 -1.14546790e+01
