 -2.63746390e+02 -1.65836994e+02 -7.78125406e+01
 -2.44087479e+02 -1.54005901e+02 -8.83735922e+01
 -2.22844917e+02 -1.42008326e+02 -9.46208379e+01
 -1.86596345e+02 -1.28865193e+02 -1.05637560e+02
 -1.60548004e+02 -1.08424927e+02 -1.14119736e+02
 -1.29359155e+02 -8.65014566e+01 -1.20733331e+02
 -1.06620623e+02 -6.30437090e+01 -1.22369213e+02
 -7.16510876e+01 -4.72513426e+01 -1.26921333e+02
 -4.05310016e+01 -1.83922647e+01 -1.26826476e+02
 -2.10958487e+00 -4.82723425e+00 -1.29696144e+02
 2.94816349e+01 1.90301994e+01 -1.28766078e+02
 -6.20900507e+01 -4.62069595e+01 1.25943149e+02
 -9.12140440e+01 -7.02505587e+01 1.24010220e+02
 -1.18025971e+02 -8.84625190e+01 1.23801403e+02
 -1.51678500e+02 -1.10986395e+02 1.10685893e+02
 -1.75612514e+02 -1.35485658e+02 1.15414759e+02
 -2.04728839e+02 -1.42491977e+02 1.03732087e+02
 -2.27669118e+02 -1.61277478e+02 8.89299811e+01
 -2.46154476e+02 -1.77982258e+02 7.99105627e+01
 -2.65869394e+02 -1.89000860e+02 6.87053178e+01
 -2.80356187e+02 -2.01355663e+02 5.30749023e+01
 -2.93328562e+02 -2.09649739e+02 4.22637264e+01
 -2.99060866e+02 -2.21018461e+02 2.77360662e+01
 -3.11362905e+02 -2.22755867e+02 1.80465762e+01
 -3.12328279e+02 -2.24466287e+02 -1.32131401e-01
 -3.09776110e+02 -2.23289540e+02 -1.13345383e+01
 -3.06875403e+02 -2.17634817e+02 -2.40841611e+01
 -2.94089064e+02 -2.19384648e+02 -4.09632185e+01
 -2.82750147e+02 -2.01637760e+02 -5.67152470e+01
 -2.69389804e+02 -1.87999194e+02 -6.32076119e+01
 -2.55882441e+02 -1.82151551e+02 -7.21526212e+01
 -2.31162350e+02 -1.66506360e+02 -8.92099584e+01
 -2.08945325e+02 -1.49253345e+02 -9.17848492e+01
 -1.86270447e+02 -1.34634563e+02 -1.02299422e+02
 -1.53242423e+02 -1.12866011e+02 -1.08571966e+02
 -1.27071058e+02 -9.36144330e+01 -1.14452968e+02
 -9.47195889e+01 -6.92831267e+01 -1.22085193e+02
 -7.09678881e+01 -4.85211465e+01 -1.24433352e+02
 -3.88332114e+01 -2.38312032e+01 -1.35301266e+02
 -6.52362529e-01 -4.35359056e+00 -1.27112107e+02
 2.89559081e+01 2.37756302e+01 -1.30628583e+02
 -6.39108426e+01 -4.86298332e+01 1.27653954e+02
 -9.03367111e+01 -7.44819009e+01 1.22664779e+02
 -1.18251816e+02 -9.51111189e+01 1.28579789e+02
 -1.45381489e+02 -1.18097484e+02 1.07657544e+02
 -1.72213580e+02 -1.37753102e+02 1.06044228e+02
 -1.90583698e+02 -1.56355689e+02 9.21162067e+01
 -2.16644038e+02 -1.77746955e+02 8.97830834e+01
 -2.30573715e+02 -1.93333176e+02 7.56912304e+01
 -2.51011559e+02 -2.02055419e+02 7.20170315e+01
 -2.68003715e+02 -2.18183423e+02 5.36054042e+01
 -2.79491453e+02 -2.26477494e+02 4.05702028e+01
 -2.81301968e+02 -2.29637599e+02 2.51997271e+01
 -2.86684909e+02 -2.39856933e+02 1.79216506e+01
 -2.87847626e+02 -2.40384866e+02 3.18275407e+00
 -2.89786386e+02 -2.40408212e+02 -1.13346200e+01
 -2.84069611e+02 -2.31288062e+02 -2.67320764e+01
 -2.75254602e+02 -2.26495145e+02 -3.64992105e+01
 -2.66173419e+02 -2.17668491e+02 -4.80777487e+01
 -2.52551934e+02 -2.10529796e+02 -6.13172474e+01
 -2.42360865e+02 -2.00479809e+02 -7.57442002e+01
 -2.20680372e+02 -1.75690508e+02 -8.78961901e+01
 -1.95442175e+02 -1.57280545e+02 -9.69048135e+01
 -1.74986043e+02 -1.39252567e+02 -1.03042224e+02
 -1.49792019e+02 -1.18936995e+02 -1.15383992e+02
 -1.22486863e+02 -1.01252875e+02 -1.23271394e+02
 -9.55869738e+01 -8.22218732e+01 -1.29646443e+02
 -5.96821917e+01 -5.37742608e+01 -1.30493382e+02
 -3.06131411e+01 -2.72546685e+01 -1.31129733e+02
 -2.65765567e+00 9.00625276e-01 -1.30757843e+02
 1.41908138e+01 4.73051056e+00 1.25936500e+02
 2.68003194e+01 7.48149571e+00 1.26142876e+02
 3.41024943e+01 1.14852170e+01 1.13813252e+02
 3.91309620e+01 1.58184996e+01 1.15074499e+02
 4.27332274e+01 1.05333757e+01 1.08708634e+02
 4.97795082e+01 1.74882205e+01 9.61886369e+01
 5.89045574e+01 1.82004692e+01 8.11179457e+01
 5.80791072e+01 2.66820856e+01 7.83101395e+01
 6.29094379e+01 2.51380923e+01 6.70485277e+01
 6.49600654e+01 2.41679403e+01 5.96151899e+01
 7.37906610e+01 2.84261383e+01 3.95042815e+01
 7.50031658e+01 2.62511599e+01 2.79222106e+01
 7.40982005e+01 2.47247811e+01 1.78436627e+01
 7.57507195e+01 2.34849531e+01 4.28885797e+00
 7.77794815e+01 2.02753136e+01 -1.78254015e+01
 7.59159804e+01 2.86010921e+01 -2.66574519e+01
 7.50878949e+01 2.89061478e+01 -3.48521562e+01
 6.86510222e+01 2.05685344e+01 -5.94784771e+01
 6.64847186e+01 2.18308320e+01 -5.97947095e+01
 6.77204037e+01 2.38988719e+01 -7.16655199e+01
 5.51994756e+01 1.71393472e+01 -8.58938319e+01
 4.91232368e+01 1.64808663e+01 -9.37146550e+01
 5.17540255e+01 1.52888386e+01 -1.08196557e+02
 3.60120489e+01 9.28461030e+00 -1.08569212e+02
 3.18688659e+01 9.03592775e+00 -1.15106604e+02
 2.79580803e+01 1.07186982e+01 -1.24665837e+02
 1.43512662e+01 1.94438600e+00 -1.29032361e+02
 1.08711999e+01 3.68932430e+00 -1.29551705e+02
 -4.99547967e+00 1.73341724e+00 -1.26259938e+02
 -1.43445734e+00 -2.09896366e+00 -1.30338282e+02
 1.94135489e+01 5.68813734e+00 1.28407009e+02
 2.93171457e+01 6.42529383e+00 1.29022368e+02
 3.45370050e+01 1.24411891e+01 1.23753341e+02
 4.03158361e+01 1.88654684e+01 1.12142903e+02
 4.56679774e+01 1.81073131e+01 1.03326078e+02
 5.35530485e+01 2.05774138e+01 1.01865190e+02
 5.90353485e+01 2.71466040e+01 9.20553140e+01
 6.58019614e+01 2.33943517e+01 7.59809031e+01
 7.35502314e+01 2.73009663e+01 6.59881847e+01
 7.54537001e+01 3.13048272e+01 4.78787921e+01
 8.01671883e+01 3.11227194e+01 4.13189821e+01
 7.85710008e+01 3.83567730e+01 2.57657410e+01
 8.04867956e+01 3.20076724e+01 1.39217874e+01
 8.12856966e+01 3.43845026e+01 -3.05031962e+00
 7.89142045e+01 3.25612170e+01 -1.20016880e+01
 8.14620439e+01 2.52023925e+01 -3.08171775e+01
 7.72108327e+01 3.29909393e+01 -3.69683396e+01
 6.94563919e+01 3.14014492e+01 -5.54279078e+01
 7.17849113e+01 3.11867277e+01 -6.53959159e+01
 6.47695525e+01 2.91977346e+01 -7.67052148e+01
 6.28026407e+01 2.89894833e+01 -8.49797650e+01
 5.50727627e+01 2.10003152e+01 -9.14239477e+01
 4.48962717e+01 2.32063183e+01 -1.06319638e+02
 3.72025826e+01 1.64794215e+01 -1.11130089e+02
 2.72592706e+01 1.96785659e+01 -1.13438987e+02
 3.13326886e+01 5.61282276e+00 -1.24285079e+02
 2.11515355e+01 6.10476590e+00 -1.26024814e+02
 6.21355850e+00 3.86636126e+00 -1.29568658e+02
 2.04005813e+00 2.08037516e+00 -1.32994812e+02
 -4.07740010e+00 -6.95094761e-01 -1.29306922e+02
 1.61470218e+01 5.92455215e+00 1.27061045e+02
 2.94768449e+01 1.62005018e+01 1.18724102e+02
 3.76846949e+01 1.96545416e+01 1.19953027e+02
 4.33289384e+01 2.25853323e+01 1.14694595e+02
 4.55947509e+01 2.07451989e+01 1.03979609e+02
 5.80168152e+01 2.66894185e+01 9.54607037e+01
 6.31355006e+01 2.84717972e+01 9.05772215e+01
 7.01437196e+01 3.07516422e+01 7.42472969e+01
 7.02969099e+01 3.11435602e+01 6.34713285e+01
 7.37491372e+01 3.51523216e+01 5.43749636e+01
 8.47319364e+01 3.44639081e+01 3.89586013e+01
 8.04393674e+01 3.91896519e+01 2.98951294e+01
 8.53679613e+01 4.06859353e+01 2.02254334e+01
 8.51661474e+01 4.20182808e+01 4.80978454e+00
 8.15679979e+01 3.56588628e+01 -1.01526967e+01
 7.80942142e+01 4.21501958e+01 -2.60478459e+01
 8.38199946e+01 3.90420422e+01 -4.03313960e+01
 7.66962664e+01 3.76853245e+01 -5.39499149e+01
 7.30409871e+01 3.10364115e+01 -6.36739089e+01
 7.00745882e+01 3.91413684e+01 -7.38953791e+01
 6.47766546e+01 3.47767224e+01 -8.39326494e+01
 5.63802312e+01 2.57109086e+01 -9.18364619e+01
 5.01202743e+01 2.46694221e+01 -1.08587019e+02
 4.32429021e+01 1.86405521e+01 -1.11632055e+02
 3.69027903e+01 1.88497822e+01 -1.18877178e+02
 2.17266304e+01 1.68991783e+01 -1.25711598e+02
 1.62610474e+01 8.33026181e+00 -1.24558893e+02
 1.44014503e+01 4.73713494e+00 -1.28427819e+02
 2.30981546e-01 2.00605916e+00 -1.32666192e+02
 -5.22262501e+00 -6.88871546e+00 -1.30512440e+02
 1.60409950e+01 1.21179915e+01 1.24401113e+02
 2.67219301e+01 8.55522017e+00 1.21544748e+02
 3.44377952e+01 1.96874493e+01 1.17439415e+02
 4.88652156e+01 2.70558428e+01 1.18252840e+02
 5.02027325e+01 2.33090870e+01 1.00942741e+02
 5.43001934e+01 3.31433532e+01 9.81513157e+01
 6.27422643e+01 3.84720930e+01 8.97171663e+01
 6.99694169e+01 4.11760786e+01 7.97215675e+01
 6.66634098e+01 4.41541489e+01 6.83265941e+01
 8.60082972e+01 3.86661295e+01 5.61725921e+01
 8.38678791e+01 4.88739773e+01 4.16842714e+01
 8.57542138e+01 4.54976463e+01 2.60477453e+01
 9.06026486e+01 4.39139030e+01 1.73118512e+01
 8.73142890e+01 4.37787985e+01 2.39755523e+00
 8.84349807e+01 5.01602049e+01 -1.00591107e+01
 8.90340291e+01 4.73737714e+01 -2.56607392e+01
 8.35280692e+01 4.78793227e+01 -4.11483079e+01
 8.05806906e+01 4.08474833e+01 -4.82074264e+01
 6.89974576e+01 4.17601759e+01 -6.08739708e+01
 7.06890178e+01 3.29472126e+01 -7.61503072e+01
 6.64495218e+01 3.34984414e+01 -8.83485826e+01
 5.51075864e+01 3.65807943e+01 -9.64389314e+01
 4.73537089e+01 2.73745322e+01 -1.02301626e+02
 4.72352576e+01 2.33868520e+01 -1.14124700e+02
 3.21985278e+01 1.95171448e+01 -1.18501810e+02
 3.16499317e+01 1.71704324e+01 -1.26888181e+02
 1.78185771e+01 8.07014509e+00 -1.30942102e+02
 1.18096173e+01 -1.10046193e+00 -1.23459795e+02
 -2.30790619e+00 -1.57620329e+00 -1.30395129e+02
 -1.05658114e+01 -1.03402383e+01 -1.22923519e+02
 1.64730850e+01 7.22673566e+00 1.26561381e+02
 3.29186075e+01 1.82159560e+01 1.25231531e+02
 3.67703657e+01 2.03336688e+01 1.20067480e+02
 4.91327420e+01 2.74236054e+01 1.19671947e+02
 5.38836134e+01 3.82153216e+01 1.10582753e+02
 5.77651256e+01 3.60791463e+01 9.57745867e+01
 6.64964028e+01 4.04506975e+01 8.67308594e+01
 7.33894681e+01 4.33573743e+01 7.72075556e+01
 7.40944682e+01 4.84673423e+01 6.77323822e+01
 8.54676844e+01 4.97781877e+01 5.22871150e+01
 8.61401821e+01 5.19772891e+01 4.39369276e+01
 9.03198789e+01 5.68988129e+01 2.95677020e+01
 8.97894229e+01 6.02227170e+01 1.39602001e+01
 9.00793657e+01 5.47869618e+01 3.53937807e+00
 9.28388125e+01 5.39192121e+01 -1.72242480e+01
 8.47776542e+01 5.62073744e+01 -2.51096764e+01
 8.43618320e+01 5.37403628e+01 -3.79647435e+01
 8.38620030e+01 5.20265600e+01 -5.70360692e+01
 7.56868018e+01 4.81402985e+01 -6.17113209e+01
 7.58484420e+01 4.68704004e+01 -7.90815916e+01
 6.44982533e+01 3.47186108e+01 -8.82407175e+01
 6.10874148e+01 3.69625887e+01 -9.75366746e+01
 5.25934748e+01 3.31154221e+01 -1.07254164e+02
 4.56343473e+01 3.12887962e+01 -1.11560819e+02
 4.06213375e+01 2.74453555e+01 -1.24265481e+02
 2.38212617e+01 1.85380056e+01 -1.26409233e+02
 2.10388944e+01 7.33268784e+00 -1.25339634e+02
 5.34381186e+00 9.29796123e+00 -1.30011384e+02
 4.58243473e+00 1.40402712e+00 -1.30337772e+02
 -7.37483097e+00 -3.16263555e+00 -1.29576634e+02
 2.04682023e+01 1.32214811e+01 1.29218789e+02
 2.80993176e+01 2.41478963e+01 1.26982725e+02
 3.23935066e+01 2.22998846e+01 1.22633041e+02
 4.55773257e+01 3.23949440e+01 1.12899764e+02
 5.09023187e+01 3.13526332e+01 9.89815997e+01
 5.74631250e+01 3.62624070e+01 9.72076128e+01
 6.60952589e+01 4.74681414e+01 9.08380728e+01
 7.54389515e+01 5.20657102e+01 7.63892549e+01
 7.94975321e+01 5.67916968e+01 6.07345352e+01
 7.84354491e+01 5.42308854e+01 5.46581428e+01
 9.00052813e+01 6.00680072e+01 4.19216960e+01
 8.43065764e+01 6.01651912e+01 2.70670248e+01
 9.53123453e+01 5.84603997e+01 1.78366139e+01
 9.13153356e+01 6.06203832e+01 -5.80810885e+00
 8.91480924e+01 6.00481494e+01 -9.82273994e+00
 8.62187105e+01 6.06206563e+01 -2.48306301e+01
 8.75505660e+01 6.26968371e+01 -4.07310349e+01
 8.12744691e+01 5.68264523e+01 -5.14100124e+01
 8.18693593e+01 4.81578772e+01 -6.16620996e+01
 7.12472681e+01 5.55469701e+01 -8.12290859e+01
 6.72899668e+01 3.85945283e+01 -8.40871493e+01
 5.84959073e+01 3.98910023e+01 -9.09977942e+01
 5.50202615e+01 4.13612528e+01 -1.04767206e+02
 4.68596437e+01 3.47473123e+01 -1.16132806e+02
 3.91964515e+01 2.92227742e+01 -1.17426941e+02
 2.81857232e+01 1.35108766e+01 -1.27031023e+02
 1.77129614e+01 1.59449493e+01 -1.28835764e+02
 1.05549609e+01 1.00599160e+01 -1.27094575e+02
 -3.04916111e-01 3.20699335e+00 -1.29491134e+02
 -6.06028742e+00 -8.88631611e+00 -1.34668731e+02
 1.82678097e+01 1.33728299e+01 1.25914421e+02
 2.81843656e+01 2.45189518e+01 1.28835647e+02
 3.85947853e+01 1.92954485e+01 1.19330633e+02
 4.69716155e+01 3.15870500e+01 1.12192050e+02
 5.46041811e+01 3.89348017e+01 1.03046981e+02
 6.08204991e+01 4.67878332e+01 9.99506184e+01
 6.70462856e+01 5.00712080e+01 8.67907831e+01
 7.63254014e+01 5.73234183e+01 7.65598938e+01
 8.35661853e+01 6.17204178e+01 6.84505155e+01
 8.49457362e+01 5.78012893e+01 5.64370349e+01
 8.46103408e+01 5.77598078e+01 4.12951080e+01
 9.02345397e+01 6.75758902e+01 2.93506806e+01
 8.91587226e+01 6.81014851e+01 1.75758795e+01
 9.02217216e+01 7.30873127e+01 -1.11725559e+00
 8.61770627e+01 7.67181666e+01 -9.03785055e+00
 8.80604231e+01 7.27663756e+01 -2.40259997e+01
 8.84003152e+01 6.55471062e+01 -4.24584422e+01
 8.25342124e+01 6.43780992e+01 -5.80257903e+01
 8.05073197e+01 5.77903864e+01 -5.86830401e+01
 7.34052685e+01 6.19622492e+01 -7.69525586e+01
 7.15558569e+01 5.75648440e+01 -8.54741375e+01
 6.36437026e+01 4.94528290e+01 -9.57093368e+01
 5.64351217e+01 4.55642634e+01 -1.03353007e+02
 4.40930556e+01 3.51112379e+01 -1.13683593e+02
 3.70111869e+01 3.05089992e+01 -1.20742034e+02
 2.26186650e+01 2.76120928e+01 -1.23645730e+02
 1.68360229e+01 1.06954264e+01 -1.23770421e+02
 5.77727214e+00 1.10337928e+01 -1.26351551e+02
 3.18668652e-01 -1.75361812e+00 -1.28728538e+02
 -1.19698526e+01 -1.66840402e+00 -1.26471725e+02
 1.87707265e+01 1.81775852e+01 1.31123059e+02
 2.77302897e+01 2.67917506e+01 1.27531928e+02
 3.30286339e+01 3.01517429e+01 1.16788783e+02
 4.94805236e+01 3.71719174e+01 1.07713567e+02
 5.44410777e+01 4.13913159e+01 1.00616726e+02
 6.50083262e+01 5.01045581e+01 1.00495562e+02
 6.83643891e+01 5.86497181e+01 8.74359793e+01
 7.12101656e+01 6.31846668e+01 7.63192104e+01
 8.34899977e+01 6.40012676e+01 6.96781567e+01
 8.46379864e+01 7.23506803e+01 5.26226570e+01
 9.06152348e+01 7.71314543e+01 3.82614470e+01
 9.09760019e+01 7.39756904e+01 2.53237811e+01
 9.71427437e+01 7.65682462e+01 1.45088851e+01
 8.91527774e+01 8.26365377e+01 4.02488779e+00
 9.24798513e+01 8.13266945e+01 -1.05277920e+01
 9.51853931e+01 7.74217022e+01 -2.64144370e+01
 8.65321913e+01 7.72663810e+01 -3.84460509e+01
 8.32256123e+01 7.82372895e+01 -5.61567001e+01
 7.66133090e+01 6.89346793e+01 -6.76111110e+01
 8.00819134e+01 6.42841001e+01 -7.03401556e+01
 7.34796682e+01 5.50433165e+01 -8.69823322e+01
 6.01004890e+01 5.36014405e+01 -9.88849879e+01
 5.44671304e+01 4.41208983e+01 -1.05471532e+02
 4.78236766e+01 4.41035239e+01 -1.10405156e+02
 3.93063236e+01 3.38192194e+01 -1.19606199e+02
 2.77409471e+01 2.89338109e+01 -1.25430028e+02
 1.93662439e+01 1.46459455e+01 -1.18991032e+02
 1.16469751e+01 5.19139389e+00 -1.30911371e+02
 -3.43284912e+00 -3.31817503e+00 -1.29457722e+02
 -1.13095649e+01 -6.84644873e+00 -1.26644965e+02
 1.47086209e+01 2.02982204e+01 1.29372067e+02
 2.44843742e+01 2.62861498e+01 1.26184604e+02
 3.49809920e+01 3.40697146e+01 1.25018500e+02
 4.87675942e+01 4.17793023e+01 1.18900250e+02
 5.50518474e+01 5.14705562e+01 1.06534080e+02
 6.18734366e+01 5.10865246e+01 9.48978525e+01
 7.00671705e+01 6.49856080e+01 9.19498133e+01
 7.53916140e+01 6.56878595e+01 7.96981128e+01
 7.32187945e+01 7.39356291e+01 6.38688342e+01
 8.87921196e+01 7.61090536e+01 5.89520897e+01
 8.37824085e+01 8.25638425e+01 3.97756829e+01
 8.82816106e+01 8.34789205e+01 2.79182900e+01
 9.18221161e+01 9.23774249e+01 1.56275743e+01
 9.24339575e+01 9.19064833e+01 6.45465445e+00
 9.65344950e+01 8.55795059e+01 -1.39968546e+01
 8.75724941e+01 8.73585131e+01 -2.03005572e+01
 8.54939594e+01 8.02644594e+01 -3.70528467e+01
 8.31712624e+01 8.13391400e+01 -5.40687055e+01
 8.42996181e+01 7.69963388e+01 -6.69418086e+01
 7.41850975e+01 6.67402900e+01 -8.10676168e+01
 6.86167927e+01 6.28429611e+01 -8.91158587e+01
 6.26565039e+01 5.59406193e+01 -9.96775289e+01
 5.70559659e+01 5.09768616e+01 -1.04317169e+02
 4.36038613e+01 4.44231627e+01 -1.10308685e+02
 3.73884993e+01 3.39741690e+01 -1.21538628e+02
 2.98844305e+01 2.80726231e+01 -1.22914896e+02
 2.66683938e+01 1.56157582e+01 -1.26712966e+02
 1.06452810e+01 1.29665676e+01 -1.26962128e+02
 3.98431739e+00 6.60753231e-01 -1.29911599e+02
 -1.03014138e+01 -1.42085612e+01 -1.31563194e+02
 1.75362558e+01 1.73271175e+01 1.29857516e+02
 3.35872856e+01 2.15658792e+01 1.21022070e+02
 3.59742265e+01 3.53809685e+01 1.18864608e+02
 4.56717171e+01 4.50049204e+01 1.11781939e+02
 5.81474166e+01 6.09770916e+01 1.04346237e+02
 6.13079326e+01 5.93738935e+01 1.01977938e+02
 6.58427050e+01 7.13835704e+01 8.54779084e+01
 7.32945235e+01 7.39701849e+01 8.02207454e+01
 7.45284422e+01 7.77455045e+01 6.57424774e+01
 7.89930626e+01 8.35796566e+01 5.16842706e+01
 8.96276672e+01 8.70545467e+01 4.15482187e+01
 8.88059930e+01 8.75079806e+01 2.27462218e+01
 8.80964662e+01 9.58381481e+01 1.16462423e+01
 8.84566922e+01 8.82086733e+01 -1.60743487e-01
 8.66630502e+01 9.17730328e+01 -1.04033987e+01
 9.19483161e+01 9.10761067e+01 -2.53815891e+01
 8.39960455e+01 9.13968537e+01 -3.79130026e+01
 8.08846637e+01 9.03363311e+01 -5.51482202e+01
 7.18998395e+01 8.90423913e+01 -6.69691644e+01
 7.66606596e+01 8.08112604e+01 -8.27893497e+01
 6.56880889e+01 6.35632243e+01 -8.46357031e+01
 5.93240210e+01 6.77809788e+01 -9.57831681e+01
 5.07883720e+01 5.28231738e+01 -1.04961856e+02
 4.84701855e+01 4.95233106e+01 -1.13648723e+02
 3.68709199e+01 3.98886207e+01 -1.18238805e+02
 3.04361934e+01 2.81599392e+01 -1.26525548e+02
 1.93112048e+01 1.74749455e+01 -1.27227456e+02
 9.53787956e+00 1.18432985e+01 -1.31518620e+02
 7.36602295e+00 -4.74516133e+00 -1.26440482e+02
 -5.66823963e+00 -9.32630166e+00 -1.27128546e+02
 2.35244399e+01 1.96002526e+01 1.28167289e+02
 2.21415788e+01 3.10584340e+01 1.26832797e+02
 3.48510740e+01 3.96846097e+01 1.19459675e+02
 4.51940300e+01 5.00245928e+01 1.15224092e+02
 5.36664651e+01 5.61838900e+01 1.09211163e+02
 5.79223677e+01 6.97271931e+01 9.33208782e+01
 5.95549022e+01 7.78067160e+01 8.74152068e+01
 6.64560465e+01 8.38498745e+01 7.67798689e+01
 7.33517721e+01 8.46570741e+01 6.61964017e+01
 7.97122891e+01 9.51439837e+01 5.13477205e+01
 7.75268446e+01 9.83370031e+01 4.27752441e+01
 8.46708343e+01 9.78763960e+01 2.99995490e+01
 8.31111322e+01 1.01790800e+02 1.34257128e+01
 8.67857896e+01 1.02962745e+02 2.46906101e+00
 8.84368214e+01 1.00557252e+02 -8.76640911e+00
 7.81160128e+01 9.75612993e+01 -2.62884123e+01
 8.48787739e+01 9.57279303e+01 -3.37674162e+01
 8.08142735e+01 9.37068839e+01 -5.33456541e+01
 7.61690403e+01 8.67071128e+01 -6.45338265e+01
 6.70463265e+01 7.82432174e+01 -7.32153990e+01
 6.42522202e+01 7.67501063e+01 -8.59394739e+01
 6.13405044e+01 6.78806288e+01 -9.63920692e+01
 4.84896983e+01 6.11194448e+01 -1.04808303e+02
 4.41695376e+01 5.06240494e+01 -1.05745848e+02
 3.77909165e+01 4.38196756e+01 -1.14765652e+02
 2.89345161e+01 3.03474001e+01 -1.24771450e+02
 1.22970746e+01 1.91937509e+01 -1.26209827e+02
 2.59384287e+00 8.25451107e+00 -1.27667790e+02
 2.40551764e+00 5.12039709e-01 -1.30653913e+02
 -7.72271218e+00 -8.73081536e+00 -1.26542799e+02
 1.54473625e+01 2.08517679e+01 1.26329031e+02
 1.92131271e+01 3.68880516e+01 1.26632276e+02
 2.89799658e+01 4.22581540e+01 1.18113292e+02
 4.18311497e+01 5.73717772e+01 1.11230957e+02
 4.20147007e+01 6.17246419e+01 1.07621044e+02
 5.66888649e+01 6.60071175e+01 9.48714907e+01
 6.30548541e+01 7.90419457e+01 8.97366224e+01
 6.95478198e+01 8.50270721e+01 7.65455075e+01
 7.20225384e+01 9.46995089e+01 6.38440120e+01
 7.45463935e+01 9.83795569e+01 5.05768095e+01
 7.82050296e+01 1.03099840e+02 4.42631250e+01
 8.14545328e+01 1.06719813e+02 2.74669639e+01
 7.87206771e+01 1.10772694e+02 1.28362067e+01
 7.97139906e+01 1.15904333e+02 2.52012606e+00
 8.24973837e+01 1.10008217e+02 -1.37326534e+01
 7.78378682e+01 1.06125670e+02 -2.55118997e+01
 8.19560948e+01 1.09613155e+02 -4.02112045e+01
 7.62267546e+01 1.01679683e+02 -5.11350282e+01
 6.94165813e+01 9.40534598e+01 -6.39167990e+01
 6.36869054e+01 9.22338481e+01 -7.60448516e+01
 6.31828494e+01 8.11956206e+01 -8.75900411e+01
 5.87590723e+01 6.83940561e+01 -9.83527701e+01
 4.71130306e+01 6.90573188e+01 -1.01442467e+02
 4.57231485e+01 5.80599346e+01 -1.09428763e+02
 3.58814991e+01 5.10978215e+01 -1.14074444e+02
 2.36182655e+01 3.14821961e+01 -1.20337850e+02
 1.48427092e+01 2.29502445e+01 -1.31188447e+02
 6.32392989e+00 9.82023542e+00 -1.30517021e+02
 -9.51113372e-01 -9.11546482e-01 -1.35321534e+02
 -5.55249407e+00 -1.39810539e+01 -1.29936492e+02
 2.18041143e+01 2.27471322e+01 1.26966747e+02
 2.49550471e+01 3.11533209e+01 1.22633339e+02
 2.95829831e+01 3.73532876e+01 1.21233024e+02
 3.54538580e+01 6.50689181e+01 1.14959801e+02
 5.06927091e+01 6.70772447e+01 1.07759272e+02
 5.04112865e+01 7.57718508e+01 9.73198000e+01
 5.83890877e+01 9.04095583e+01 8.73514840e+01
 5.27793901e+01 9.69375023e+01 8.07906371e+01
 6.67341727e+01 1.03888574e+02 6.34914223e+01
 6.73837913e+01 1.08344044e+02 5.45762443e+01
 6.98803811e+01 1.09999526e+02 4.39707628e+01
 7.29621579e+01 1.16375871e+02 2.98363828e+01
 7.63293022e+01 1.16869513e+02 1.99669659e+01
 7.27006173e+01 1.15325370e+02 -2.58448393e-01
 8.10694961e+01 1.14683050e+02 -1.39529165e+01
 7.10759177e+01 1.17627231e+02 -2.46600469e+01
 7.55905736e+01 1.10481703e+02 -4.07821428e+01
 6.59522532e+01 1.09552313e+02 -5.40126228e+01
 6.78030621e+01 1.05708675e+02 -6.27442880e+01
 6.51212878e+01 9.28924798e+01 -7.74540373e+01
 6.02826424e+01 8.51777171e+01 -8.38474715e+01
 5.75566608e+01 8.23183056e+01 -9.14456463e+01
 4.66006670e+01 6.76673719e+01 -1.02955015e+02
 3.57332483e+01 5.64601432e+01 -1.12053923e+02
 3.36574603e+01 4.98375402e+01 -1.17067088e+02
 2.46971688e+01 3.77015213e+01 -1.20318590e+02
 1.61976932e+01 2.76205234e+01 -1.31868953e+02
 7.72952467e+00 1.56970796e+01 -1.27485583e+02
 -6.28838798e+00 2.56058619e+00 -1.29847098e+02
 -1.05534470e+01 -1.25697252e+01 -1.25122658e+02
 1.50750257e+01 2.27466344e+01 1.30527088e+02
 1.27302666e+01 3.69688875e+01 1.26780971e+02
 2.31466654e+01 4.84144525e+01 1.20328222e+02
 3.94240457e+01 5.99086453e+01 1.09196888e+02
 3.86081062e+01 6.91264704e+01 1.02048832e+02
 4.57438850e+01 8.14286166e+01 9.55803283e+01
 4.96962643e+01 9.30551082e+01 8.66976935e+01
 5.76220612e+01 9.83184248e+01 7.71828542e+01
 6.07723812e+01 1.04360056e+02 6.26867470e+01
 6.47920923e+01 1.12450075e+02 5.08302786e+01
 7.05555224e+01 1.19183850e+02 4.37558334e+01
 6.60418601e+01 1.18330613e+02 2.81428403e+01
 6.49572730e+01 1.25216778e+02 9.25222027e+00
 6.98002391e+01 1.26348490e+02 1.16408386e+00
 6.79879790e+01 1.22764720e+02 -1.15020309e+01
 7.30051178e+01 1.26648533e+02 -2.50992163e+01
 6.62972665e+01 1.14767289e+02 -3.81808150e+01
 5.93450577e+01 1.16500796e+02 -5.26729729e+01
 6.33858706e+01 1.08854046e+02 -5.80573947e+01
 5.74384574e+01 9.88674059e+01 -7.55043168e+01
 5.46296921e+01 9.65560332e+01 -8.43716719e+01
 5.12476183e+01 8.77982892e+01 -1.02287382e+02
 3.95175116e+01 7.88046586e+01 -1.06765165e+02
 2.96382904e+01 6.13185014e+01 -1.19163917e+02
 3.15860642e+01 5.50852116e+01 -1.14658541e+02
 2.24846510e+01 3.58171493e+01 -1.15878509e+02
 1.99568023e+01 2.58431956e+01 -1.26540932e+02
 1.21709844e+01 1.37562171e+01 -1.28423629e+02
 -3.08589610e+00 2.76484023e+00 -1.29891469e+02
 -2.60993261e+00 -1.08968533e+01 -1.30781133e+02
 9.74680122e+00 2.89230805e+01 1.23251302e+02
 1.94586783e+01 4.21517854e+01 1.24366966e+02
 2.65803250e+01 5.18959143e+01 1.20937662e+02
 3.24671069e+01 6.84663211e+01 1.09858678e+02
 3.81623231e+01 7.64868672e+01 1.04511561e+02
 4.52081729e+01 8.82179151e+01 1.00641013e+02
 4.49339052e+01 9.75244394e+01 8.37706934e+01
 5.09384017e+01 1.11272872e+02 7.74255135e+01
 5.44367240e+01 1.14330150e+02 6.44003833e+01
 5.72370994e+01 1.15038182e+02 5.55963130e+01
 6.41913155e+01 1.24566817e+02 4.03729104e+01
 7.12169973e+01 1.33013105e+02 2.77107456e+01
 6.82566065e+01 1.33083056e+02 1.44586313e+01
 6.14896579e+01 1.22779554e+02 3.27382964e+00
 6.12762362e+01 1.31384011e+02 -9.31414821e+00
 6.29144696e+01 1.28300432e+02 -2.44948140e+01
 6.35391607e+01 1.27815597e+02 -3.65211368e+01
 6.24848897e+01 1.20340255e+02 -5.19500787e+01
 5.89610283e+01 1.15748862e+02 -6.14149207e+01
 5.44918933e+01 1.09383877e+02 -6.94573030e+01
 4.79894706e+01 9.60545176e+01 -8.58990472e+01
 4.24261844e+01 8.88875147e+01 -9.81041467e+01
 3.34802023e+01 7.58706128e+01 -1.04123450e+02
 3.43422653e+01 6.36701813e+01 -1.13424838e+02
 2.47787458e+01 5.64839218e+01 -1.16404925e+02
 2.03897994e+01 3.82517905e+01 -1.21194623e+02
 1.82866165e+01 3.01783283e+01 -1.24911334e+02
 6.07867316e+00 1.52655312e+01 -1.29533064e+02
 4.19542548e+00 2.14056409e+00 -1.24303183e+02
 -7.89280828e+00 -1.07670723e+01 -1.33932794e+02
 1.19014616e+01 2.41807393e+01 1.24110756e+02
 1.94176219e+01 3.88942639e+01 1.20627483e+02
 2.83077059e+01 5.61831336e+01 1.19739285e+02
 2.27026256e+01 7.15952261e+01 1.16745028e+02
 3.27182666e+01 7.54788286e+01 1.05259333e+02
 3.80077991e+01 8.72354453e+01 1.01065467e+02
 4.53076962e+01 1.03318516e+02 8.64970228e+01
 4.47390750e+01 1.09663301e+02 7.47984638e+01
 4.10144681e+01 1.19941092e+02 6.05207684e+01
 5.41732382e+01 1.23706881e+02 5.01089211e+01
 5.30146345e+01 1.32463605e+02 4.15160144e+01
 5.24500346e+01 1.33232670e+02 2.55795391e+01
 5.42589376e+01 1.41083095e+02 1.45780035e+01
 5.88421988e+01 1.40178121e+02 9.20618772e-01
 5.72455408e+01 1.35582069e+02 -7.39173570e+00
 4.85208964e+01 1.32555640e+02 -2.73499339e+01
 5.32052348e+01 1.27402997e+02 -3.87751369e+01
 4.75457789e+01 1.25477791e+02 -5.05673099e+01
 5.02882010e+01 1.19819771e+02 -6.13329038e+01
 4.64365958e+01 1.18266118e+02 -7.70522102e+01
 4.21008316e+01 1.06922727e+02 -8.61875916e+01
 3.92012605e+01 9.62901069e+01 -9.87758168e+01
 3.15331577e+01 8.51332283e+01 -1.01770969e+02
 2.89925450e+01 6.76072932e+01 -1.13378828e+02
 2.67815706e+01 5.76900262e+01 -1.23849989e+02
 1.77025412e+01 4.29108389e+01 -1.19554750e+02
 1.33468702e+01 3.20300160e+01 -1.27641384e+02
 9.65829526e+00 2.39681002e+01 -1.28337202e+02
 4.97641350e-01 6.48751224e+00 -1.26755648e+02
 -7.04046404e+00 -1.28129223e+01 -1.28806195e+02
 1.00540688e+01 2.58412809e+01 1.23083960e+02
 1.68460617e+01 3.91398932e+01 1.30799713e+02
 1.71645598e+01 5.61394570e+01 1.15734758e+02
 2.22171323e+01 7.13434138e+01 1.15395324e+02
 2.85052775e+01 8.70145684e+01 1.02423107e+02
 3.01689068e+01 9.28127151e+01 1.01036218e+02
 3.61579721e+01 1.08959617e+02 9.24915488e+01
 3.39165834e+01 1.19656137e+02 8.57607092e+01
 4.03548284e+01 1.23739820e+02 6.36456091e+01
 4.25122394e+01 1.32243972e+02 5.60747138e+01
 4.94703268e+01 1.41256244e+02 4.35808039e+01
 4.80816934e+01 1.42939589e+02 2.74504444e+01
 4.20462122e+01 1.46775113e+02 1.70071624e+01
 4.24511274e+01 1.45988582e+02 1.56158324e+00
 3.99490712e+01 1.49202594e+02 -1.81746111e+01
 5.05505678e+01 1.42791086e+02 -2.92103725e+01
 4.62507747e+01 1.32170660e+02 -3.42746089e+01
 3.77813312e+01 1.33885566e+02 -4.86064662e+01
 4.28986681e+01 1.20707817e+02 -6.68013608e+01
 3.49633878e+01 1.19751672e+02 -7.97829095e+01
 3.82782370e+01 1.13677518e+02 -8.65505157e+01
 3.42620391e+01 9.60358419e+01 -1.01189098e+02
 3.05704815e+01 8.07371628e+01 -9.93177392e+01
 2.15733382e+01 6.91631414e+01 -1.12165637e+02
 2.20277303e+01 6.00780481e+01 -1.19759516e+02
 1.63611976e+01 4.59398726e+01 -1.17811621e+02
 1.30662689e+01 3.00791300e+01 -1.25410828e+02
 7.10133486e+00 1.95219266e+01 -1.30229383e+02
 1.30144330e+00 1.83828184e+00 -1.31494147e+02
 -2.49416652e+00 -1.17999087e+01 -1.31671498e+02
 6.04618315e+00 3.13496978e+01 1.29664866e+02
 1.24802875e+01 4.70716327e+01 1.28260424e+02
 1.36739752e+01 5.71623892e+01 1.18337328e+02
 1.68294529e+01 7.55093190e+01 1.17408997e+02
 2.25453635e+01 8.68917159e+01 1.07169350e+02
 2.36655678e+01 1.00720479e+02 9.24079335e+01
 2.78111349e+01 1.16187733e+02 9.35520856e+01
 2.80200073e+01 1.21303912e+02 7.64617114e+01
 3.13194950e+01 1.30816163e+02 6.88514374e+01
 3.49732401e+01 1.34893435e+02 5.81337491e+01
 3.38409069e+01 1.43206599e+02 3.66210685e+01
 3.67845105e+01 1.50501188e+02 3.30238529e+01
 3.71043509e+01 1.46922984e+02 1.42306686e+01
 3.59567447e+01 1.47953575e+02 4.15974832e+00
 3.30218106e+01 1.49640851e+02 -1.81837080e+01
 3.70047525e+01 1.52743056e+02 -3.28733139e+01
 3.86386575e+01 1.45823116e+02 -3.23436788e+01
 3.67924911e+01 1.41837999e+02 -5.08874470e+01
 3.47190746e+01 1.32790268e+02 -6.22425794e+01
 2.93908501e+01 1.26754544e+02 -7.42854508e+01
 3.59237127e+01 1.15895719e+02 -8.87683033e+01
 2.54371706e+01 1.02546677e+02 -9.86490334e+01
 2.54526557e+01 9.19771053e+01 -1.03420289e+02
 2.09999945e+01 7.72194511e+01 -1.15062965e+02
 1.11235345e+01 6.04967808e+01 -1.16142821e+02
 1.11134942e+01 4.65149467e+01 -1.22928495e+02
 6.05654190e+00 3.23436110e+01 -1.26125307e+02
 6.05204706e+00 1.71025475e+01 -1.29856912e+02
 4.95170115e+00 7.39012669e+00 -1.27529667e+02
 -2.82691220e+00 -1.08404987e+01 -1.31143991e+02
 7.47858365e+00 3.40416048e+01 1.22116254e+02
 4.51447453e+00 4.59770937e+01 1.25677707e+02
 1.00315341e+01 5.86901963e+01 1.16700140e+02
 1.23598664e+01 7.80195810e+01 1.05357924e+02
 1.51396877e+01 9.00231542e+01 1.02765117e+02
 1.40366098e+01 1.02162978e+02 9.99493646e+01
 1.97136255e+01 1.15867214e+02 8.50414385e+01
 2.31624518e+01 1.26883322e+02 8.07667086e+01
 2.23863856e+01 1.33683153e+02 6.45683775e+01
 2.28138582e+01 1.38428524e+02 5.36712020e+01
 2.43167860e+01 1.45449318e+02 3.60413206e+01
 2.47283562e+01 1.55759892e+02 2.52176467e+01
 2.59072987e+01 1.55163908e+02 1.06903607e+01
 3.03267131e+01 1.56010231e+02 -3.45609115e+00
 2.54705595e+01 1.56476016e+02 -6.97719219e+00
 2.49484803e+01 1.55274288e+02 -2.72280697e+01
 2.55775847e+01 1.49903517e+02 -3.89346953e+01
 2.36996905e+01 1.41654759e+02 -5.28819591e+01
 2.33151318e+01 1.36067420e+02 -6.08174222e+01
 2.56836820e+01 1.25051733e+02 -7.29124898e+01
 2.03423045e+01 1.17911937e+02 -9.33401276e+01
 1.85623935e+01 1.05603071e+02 -9.27573751e+01
 1.73321234e+01 9.33778423e+01 -1.00113676e+02
 1.40359483e+01 8.22630533e+01 -1.12893396e+02
 1.00946995e+01 6.45325007e+01 -1.20254880e+02
 1.01275518e+01 4.63875516e+01 -1.24019895e+02
 5.69923942e+00 3.41839760e+01 -1.29442725e+02
 6.36087043e+00 1.73767788e+01 -1.30359310e+02
 -2.31807647e+00 4.15059408e+00 -1.23242214e+02
 -1.85620865e+00 -1.81738882e+01 -1.27209532e+02
 3.23253660e+00 3.31940345e+01 1.25675892e+02
 4.63782399e+00 4.81790839e+01 1.29018442e+02
 5.19024822e+00 6.75922235e+01 1.19816928e+02
 3.69707316e+00 8.61253921e+01 1.12357652e+02
 7.82286717e+00 8.71882790e+01 1.01912061e+02
 1.13989248e+01 1.06613767e+02 9.09000725e+01
 6.10470385e+00 1.19025005e+02 8.83761875e+01
 1.26509553e+01 1.30889962e+02 8.47970035e+01
 1.10443648e+01 1.43054265e+02 5.88704532e+01
 1.57999407e+01 1.42602874e+02 5.26141726e+01
 1.52010523e+01 1.56153531e+02 3.92869519e+01
 1.52554160e+01 1.59592749e+02 2.61406699e+01
 1.57673050e+01 1.59750291e+02 1.33667725e+01
 1.97584542e+01 1.54407066e+02 3.57250949e+00
 1.68764121e+01 1.59097863e+02 -1.12778327e+01
 1.38674335e+01 1.59841414e+02 -2.35857231e+01
 1.11927882e+01 1.50855031e+02 -4.28410660e+01
 1.44848245e+01 1.47038734e+02 -5.31458910e+01
 1.11101015e+01 1.38334495e+02 -6.65869943e+01
 1.29942955e+01 1.25354166e+02 -6.75628403e+01
 8.25214265e+00 1.21471020e+02 -8.64588248e+01
 1.26561079e+01 1.10997911e+02 -9.50181298e+01
 8.22138327e+00 9.78976609e+01 -1.06129237e+02
 1.01559305e+00 7.64977487e+01 -1.14389613e+02
 4.23136934e+00 6.86140725e+01 -1.17222402e+02
 3.83993442e+00 4.99569168e+01 -1.17063888e+02
 1.86260151e+00 3.66054515e+01 -1.26566728e+02
 -2.64074244e+00 2.58308067e+01 -1.27359749e+02
 -7.52030076e-01 5.08574624e+00 -1.33235676e+02
 -3.57355474e+00 -1.44051443e+01 -1.29744778e+02
 -7.38538322e-01 2.80873293e+01 1.20843316e+02
 2.61769375e+00 4.62204192e+01 1.25478771e+02
 8.20028129e+00 6.78641171e+01 1.21115261e+02
 -1.76386985e+00 8.21617177e+01 1.14200742e+02
 -1.32566247e+00 9.59862379e+01 1.09471410e+02
 9.80609988e-01 1.11775611e+02 9.34114295e+01
 5.06977835e-01 1.20632715e+02 8.52044903e+01
 6.47071117e+00 1.32909498e+02 7.63046638e+01
 -6.25864492e-01 1.45443725e+02 6.59316847e+01
 4.60134171e+00 1.45441397e+02 5.19941669e+01
 7.13158625e-01 1.54886417e+02 4.20705175e+01
 -4.42436775e+00 1.57625975e+02 2.83698381e+01
 3.16779933e+00 1.65369309e+02 1.28306556e+01
 2.58395954e+00 1.64872195e+02 -2.00350870e+00
 1.88560025e+00 1.69076455e+02 -1.17709189e+01
 1.82951900e+00 1.62389911e+02 -2.09392259e+01
 1.04885106e+00 1.60254670e+02 -3.99951145e+01
 5.17487593e-01 1.49004036e+02 -5.00981194e+01
 4.89095772e+00 1.47359347e+02 -6.16420433e+01
 -2.46517841e+00 1.39332931e+02 -7.45464041e+01
 9.98710851e-01 1.29527868e+02 -8.51085129e+01
 -2.39148272e+00 1.07506910e+02 -9.48242748e+01
 -8.99089548e-01 9.56210767e+01 -1.13695436e+02
 -2.40297898e+00 8.87002222e+01 -1.10462262e+02
 2.19246355e+00 7.14692929e+01 -1.19830278e+02
 -2.28530989e+00 5.08997965e+01 -1.26921773e+02
 -3.19953720e+00 3.62601038e+01 -1.26715424e+02
 9.63394146e-02 1.43841577e+01 -1.28472998e+02
 -1.67342581e+00 3.93201734e+00 -1.27696383e+02
 6.63079415e+00 -9.34765109e+00 -1.30827372e+02
 -4.34265239e+00 3.61167281e+01 1.21624763e+02
 -3.76111259e+00 5.25698564e+01 1.27755239e+02
 -4.95682792e+00 6.30724285e+01 1.15858668e+02
 -4.84526286e+00 8.25431908e+01 1.11238164e+02
 -1.25166159e+00 1.02185881e+02 1.06361565e+02
 -5.36817557e+00 1.17856449e+02 9.75997528e+01
 -1.28350347e+01 1.21826913e+02 8.79680303e+01
 -9.84518357e+00 1.38900726e+02 7.54230503e+01
 -6.85629984e+00 1.43589741e+02 6.70209797e+01
 -1.03720796e+01 1.54364106e+02 5.25398380e+01
 -1.19833915e+01 1.56188025e+02 3.94584124e+01
 -1.12885260e+01 1.63653650e+02 2.78493305e+01
 -9.09490290e+00 1.64889617e+02 1.89235728e+01
 -1.19362214e+01 1.73304906e+02 -1.92514115e+00
 -5.71785864e+00 1.65849190e+02 -9.34784618e+00
 -6.74526585e+00 1.65411656e+02 -2.38350894e+01
 -1.28646823e+01 1.58907117e+02 -3.84764723e+01
 -1.38065628e+01 1.55839569e+02 -4.98839271e+01
 -9.93367445e+00 1.43467189e+02 -6.59966178e+01
 -1.11851581e+01 1.39295949e+02 -6.98532389e+01
 -1.06257160e+01 1.26327269e+02 -8.74011109e+01
 -5.51481263e+00 1.13119203e+02 -9.60548404e+01
 -9.16355452e+00 1.00761231e+02 -1.03988736e+02
 -3.92201249e+00 8.79079990e+01 -1.17862541e+02
 -7.57465558e+00 6.96514552e+01 -1.19101443e+02
 -6.78553093e-01 5.13233278e+01 -1.24654703e+02
 -8.00217190e-01 3.82001647e+01 -1.27697746e+02
 -2.65399771e+00 1.69554867e+01 -1.27707071e+02
 -2.28715399e-01 -1.10930687e+00 -1.29523876e+02
 -2.28598827e-01 -1.51228062e+01 -1.28100626e+02
 -3.10502485e-01 3.66435257e+01 1.30510239e+02
 -2.46331665e+00 5.01102654e+01 1.18655192e+02
 -7.51289420e+00 6.79304705e+01 1.18880634e+02
 -1.04883317e+01 8.13954591e+01 1.09130506e+02
 -1.47534646e+01 9.40817340e+01 1.01341467e+02
 -1.56478810e+01 1.14823469e+02 9.34089262e+01
 -1.95047894e+01 1.28643565e+02 9.04687690e+01
 -2.32049773e+01 1.35844583e+02 7.77490851e+01
 -1.61558643e+01 1.50447524e+02 6.72516570e+01
 -2.45801026e+01 1.55333335e+02 5.35287913e+01
 -2.42013477e+01 1.66636331e+02 4.59791154e+01
 -2.59746434e+01 1.64326993e+02 3.29463587e+01
 -2.11651531e+01 1.74533703e+02 9.78127413e+00
 -2.18869024e+01 1.70569807e+02 2.00810416e-01
 -2.68923323e+01 1.73074626e+02 -1.03342433e+01
 -2.92980913e+01 1.69387905e+02 -2.29373973e+01
 -2.52312453e+01 1.70074807e+02 -4.30541247e+01
 -1.97862673e+01 1.55789674e+02 -5.12385026e+01
 -1.61161580e+01 1.53207728e+02 -6.42261421e+01
 -1.94571466e+01 1.40557514e+02 -7.09120553e+01
 -1.73854941e+01 1.25009344e+02 -8.27885732e+01
 -1.92249918e+01 1.09856784e+02 -1.00218365e+02
 -1.96513250e+01 1.06659883e+02 -1.00929144e+02
 -7.43974455e+00 8.60976211e+01 -1.14532152e+02
 -7.80493002e+00 7.57343269e+01 -1.18583398e+02
 -1.09332760e+01 5.02401428e+01 -1.24489502e+02
 -6.15547720e+00 2.97690122e+01 -1.28853081e+02
 -2.02780141e+00 2.26640405e+01 -1.24097561e+02
 -4.31267044e-01 -4.66976643e-01 -1.31949010e+02
 -7.58214866e-02 -1.44173527e+01 -1.21224394e+02
 -4.82389595e+00 3.20746893e+01 1.32548733e+02
 -1.58363084e+01 4.84535734e+01 1.23750312e+02
 -1.76469790e+01 7.29438356e+01 1.21300671e+02
 -1.84294233e+01 8.58300140e+01 1.13141155e+02
 -2.02932684e+01 9.73119555e+01 1.04965068e+02
 -2.23146208e+01 1.09921644e+02 9.82472671e+01
 -3.55922744e+01 1.28581273e+02 8.82921395e+01
 -3.68902456e+01 1.41129444e+02 7.52628311e+01
 -2.89089133e+01 1.49822528e+02 6.69199736e+01
 -3.32535228e+01 1.61435522e+02 5.94404785e+01
 -4.04080238e+01 1.66315765e+02 3.84547133e+01
 -4.01238061e+01 1.67872192e+02 2.92011824e+01
 -3.71446787e+01 1.73912244e+02 1.97344456e+01
 -4.38845210e+01 1.74870058e+02 5.68453653e+00
 -3.91924092e+01 1.78907044e+02 -9.52263758e+00
 -3.69208410e+01 1.77560013e+02 -2.56087540e+01
 -3.53540295e+01 1.70168369e+02 -3.66753502e+01
 -3.31152574e+01 1.58846131e+02 -5.06592666e+01
 -3.19935778e+01 1.54105021e+02 -6.75649334e+01
 -2.93877900e+01 1.37156908e+02 -7.14394673e+01
 -2.38670438e+01 1.32707580e+02 -8.71309709e+01
 -2.12348550e+01 1.21119003e+02 -9.16493793e+01
 -1.96832514e+01 1.05784416e+02 -1.03816396e+02
 -1.93771919e+01 9.23585589e+01 -1.12041424e+02
 -1.25535870e+01 7.11383704e+01 -1.19677246e+02
 -7.93730553e+00 5.19613712e+01 -1.22906631e+02
 -9.75656276e+00 3.95955294e+01 -1.21205904e+02
 -4.87820433e+00 2.39052129e+01 -1.23514106e+02
 -5.87352479e+00 -6.53148308e+00 -1.33711197e+02
 2.89161732e+00 -1.73579928e+01 -1.26638867e+02
 -5.10123836e+00 3.50464075e+01 1.28883015e+02
 -2.16735415e+01 5.50224822e+01 1.24156090e+02
 -2.23978285e+01 7.00093201e+01 1.12433329e+02
 -2.71529356e+01 8.41992972e+01 1.11659264e+02
 -3.01395619e+01 1.01551001e+02 1.05221130e+02
 -3.58492795e+01 1.17530754e+02 9.97905355e+01
 -3.60347943e+01 1.32943189e+02 8.58810793e+01
 -4.74422041e+01 1.44677040e+02 7.47987211e+01
 -4.51342373e+01 1.52646066e+02 6.40904961e+01
 -4.98473509e+01 1.58940943e+02 5.67690822e+01
 -4.86492581e+01 1.65176073e+02 4.05432779e+01
 -4.73982476e+01 1.73336471e+02 2.60620019e+01
 -5.55737227e+01 1.72907354e+02 1.43213264e+01
 -5.68158591e+01 1.75768881e+02 1.29155502e+00
 -5.03158667e+01 1.76764319e+02 -9.12911158e+00
 -5.69562106e+01 1.70249751e+02 -2.11948803e+01
 -5.03870584e+01 1.70138571e+02 -3.82937267e+01
 -4.65010295e+01 1.59810179e+02 -4.95288368e+01
 -4.66783542e+01 1.50047585e+02 -6.60742083e+01
 -4.45425819e+01 1.41934747e+02 -7.52605667e+01
 -4.29868416e+01 1.37315857e+02 -8.79093583e+01
 -3.96893619e+01 1.16807183e+02 -9.19472248e+01
 -3.55075105e+01 1.07463750e+02 -9.95676766e+01
 -2.66339347e+01 8.54801541e+01 -1.13554795e+02
 -2.41782550e+01 7.26887786e+01 -1.20086619e+02
 -1.71570619e+01 5.72188893e+01 -1.23288045e+02
 -7.91018219e+00 3.79296696e+01 -1.25890493e+02
 -9.47362053e+00 2.31697210e+01 -1.27456043e+02
 -3.71821962e+00 6.65541590e+00 -1.26446974e+02
 -9.20092428e-02 -1.58614142e+01 -1.32591762e+02
 -6.48221926e+00 3.59931832e+01 1.27603677e+02
 -2.15178171e+01 4.85320679e+01 1.24889301e+02
 -2.70878870e+01 6.89893329e+01 1.18904787e+02
 -3.45037351e+01 8.40832717e+01 1.12200422e+02
 -3.93218508e+01 1.01939539e+02 1.01619935e+02
 -4.34809934e+01 1.15252750e+02 9.70995789e+01
 -5.07322769e+01 1.28128804e+02 8.25256253e+01
 -5.45907688e+01 1.39317752e+02 7.76595502e+01
 -6.12094988e+01 1.55348215e+02 6.72031721e+01
 -6.54796209e+01 1.60747863e+02 5.17573674e+01
 -6.57973142e+01 1.68933837e+02 4.24798142e+01
 -6.61591911e+01 1.71800674e+02 2.92341521e+01
 -6.89824394e+01 1.74182137e+02 1.54848838e+01
 -7.14908978e+01 1.74517289e+02 1.53582954e+00
 -7.28265533e+01 1.74579946e+02 -1.42093591e+01
 -7.09051838e+01 1.70024815e+02 -2.56582991e+01
 -6.80604473e+01 1.63987945e+02 -3.27488939e+01
 -6.19442570e+01 1.55675605e+02 -5.08350372e+01
 -6.25461725e+01 1.51389873e+02 -6.42009232e+01
 -5.96298941e+01 1.43482806e+02 -7.51136161e+01
 -4.96452889e+01 1.34329408e+02 -8.49588027e+01
 -4.57857994e+01 1.17242249e+02 -9.39546132e+01
 -4.05410316e+01 1.08384113e+02 -1.02205259e+02
 -3.63674946e+01 8.45360172e+01 -1.08670792e+02
 -3.17277679e+01 7.77758305e+01 -1.23576440e+02
 -1.92392686e+01 5.39837407e+01 -1.29006939e+02
 -1.83871113e+01 4.12662344e+01 -1.28704308e+02
 -9.17478215e+00 1.93619953e+01 -1.27241390e+02
 8.48267038e-01 5.17905572e+00 -1.28563407e+02
 6.61822811e+00 -1.86957448e+01 -1.26193850e+02
 -1.16931950e+01 3.37268661e+01 1.20724474e+02
 -2.67724990e+01 5.43320273e+01 1.24359388e+02
 -3.64229815e+01 7.04312436e+01 1.16394038e+02
 -4.08792800e+01 8.15678037e+01 1.12825239e+02
 -5.04325798e+01 1.03270016e+02 1.07536520e+02
 -5.28877146e+01 1.17604911e+02 1.01002341e+02
 -6.41782288e+01 1.30905684e+02 8.74619945e+01
 -6.64256646e+01 1.41869336e+02 7.81626084e+01
 -7.57230716e+01 1.51747036e+02 6.94196507e+01
 -7.63682704e+01 1.61614710e+02 5.23836554e+01
 -7.93486048e+01 1.67161474e+02 4.17506863e+01
 -8.41881550e+01 1.72794151e+02 3.15388452e+01
 -8.89037228e+01 1.70705357e+02 1.00547807e+01
 -8.32160708e+01 1.81803656e+02 8.46008752e+00
 -8.67026989e+01 1.82436865e+02 -8.25199978e+00
 -8.94035532e+01 1.71546677e+02 -2.38974976e+01
 -8.37609527e+01 1.69818397e+02 -3.58295678e+01
 -8.05547860e+01 1.61521890e+02 -5.11153463e+01
 -7.45333506e+01 1.50692683e+02 -6.30936718e+01
 -6.98139395e+01 1.47780149e+02 -7.31204600e+01
 -6.35354709e+01 1.29327249e+02 -8.59283551e+01
 -6.07818631e+01 1.21162900e+02 -9.49778490e+01
 -4.78831854e+01 1.02750282e+02 -1.09806562e+02
 -5.43233797e+01 8.71247540e+01 -1.06246721e+02
 -3.74878484e+01 7.36483385e+01 -1.18234414e+02
 -2.72353005e+01 6.00973308e+01 -1.21318620e+02
 -1.62362402e+01 4.13410069e+01 -1.23379384e+02
 -1.46862222e+01 1.54836002e+01 -1.24337658e+02
 -2.68575975e-01 7.84772793e-01 -1.24069970e+02
 1.93413271e+00 -1.54012109e+01 -1.30685342e+02
 -2.08058441e+01 3.43091080e+01 1.32171820e+02
 -3.24844788e+01 5.21193513e+01 1.24692784e+02
 -4.29003061e+01 6.60186057e+01 1.18305839e+02
 -5.55752941e+01 8.72418382e+01 1.13452267e+02
 -6.44683393e+01 9.87164255e+01 1.04222567e+02
 -6.44069500e+01 1.11656611e+02 9.63522680e+01
 -7.54912927e+01 1.30504054e+02 8.65056795e+01
 -8.46664358e+01 1.34793935e+02 7.68360499e+01
 -8.83353961e+01 1.52799533e+02 7.18096496e+01
 -8.83043083e+01 1.53302854e+02 5.47720202e+01
 -1.00299191e+02 1.67203401e+02 4.52126621e+01
 -1.02107764e+02 1.72713055e+02 2.79396759e+01
 -1.03729917e+02 1.72139564e+02 1.73400000e+01
 -1.02959537e+02 1.77004331e+02 5.14597939e+00
 -1.03279319e+02 1.72316794e+02 -1.30634756e+01
 -1.01773410e+02 1.76481457e+02 -3.06027169e+01
 -1.04205965e+02 1.67013910e+02 -4.39312428e+01
 -9.28000361e+01 1.58951740e+02 -5.45100106e+01
 -8.59560376e+01 1.51571444e+02 -6.18219878e+01
 -8.96831271e+01 1.40708793e+02 -7.25509601e+01
 -7.45004651e+01 1.30877472e+02 -8.58121966e+01
 -6.79425122e+01 1.16700555e+02 -9.08747027e+01
 -6.20243534e+01 1.07645742e+02 -1.09227379e+02
 -5.84790800e+01 8.55301526e+01 -1.07973500e+02
 -4.47105043e+01 7.37068532e+01 -1.19326302e+02
 -3.51634410e+01 5.44961563e+01 -1.26959267e+02
 -2.47407965e+01 3.67814349e+01 -1.27919262e+02
 -1.32627463e+01 1.82212869e+01 -1.30472476e+02
 -6.72949155e+00 2.01221963e+00 -1.27864947e+02
 1.07574648e+01 -1.93518798e+01 -1.28546913e+02
 -2.21698593e+01 3.52295636e+01 1.27052060e+02
 -3.77219650e+01 4.94969137e+01 1.25850338e+02
 -4.96306049e+01 6.38596555e+01 1.24532836e+02
 -5.87567785e+01 8.65160634e+01 1.17706931e+02
 -7.13758398e+01 1.02204131e+02 1.07797361e+02
 -8.26894069e+01 1.15683542e+02 9.78256279e+01
 -8.72561002e+01 1.26418106e+02 8.72424374e+01
 -9.55214351e+01 1.44239564e+02 7.74534240e+01
 -1.05330003e+02 1.49654857e+02 6.47910061e+01
 -1.14261988e+02 1.55939395e+02 5.35719889e+01
 -1.18350021e+02 1.60049604e+02 3.54906797e+01
 -1.15161954e+02 1.69363911e+02 3.15884049e+01
 -1.25844598e+02 1.72732588e+02 1.05053899e+01
 -1.18390992e+02 1.78670779e+02 3.26402888e+00
 -1.22672844e+02 1.77521233e+02 -1.30525377e+01
 -1.17048107e+02 1.66367755e+02 -2.40155849e+01
 -1.14307025e+02 1.70029441e+02 -3.69477379e+01
 -1.12803897e+02 1.54670325e+02 -5.28237228e+01
 -1.05587473e+02 1.52062126e+02 -6.47050400e+01
 -9.64765946e+01 1.40855238e+02 -8.15263969e+01
 -9.10039511e+01 1.35699216e+02 -9.36877693e+01
 -7.83054707e+01 1.12621265e+02 -9.20154153e+01
 -7.34495172e+01 1.01537404e+02 -1.09973187e+02
 -6.14501915e+01 9.11672160e+01 -1.18222271e+02
 -5.44327365e+01 7.02800686e+01 -1.19704747e+02
 -3.48171708e+01 5.57478271e+01 -1.21456750e+02
 -2.80149345e+01 3.25671468e+01 -1.28252957e+02
 -1.32950433e+01 1.85485583e+01 -1.29829836e+02
 -1.72402289e+00 2.15749232e+00 -1.29782051e+02
 1.32260082e+01 -1.88207997e+01 -1.30604883e+02
 -2.45421759e+01 3.14441600e+01 1.27707472e+02
 -4.19855730e+01 5.57984658e+01 1.20903168e+02
 -5.22455744e+01 6.68553572e+01 1.12937241e+02
 -6.28345045e+01 8.30309558e+01 1.11847755e+02
 -7.87067077e+01 1.00976617e+02 1.06287863e+02
 -8.68743523e+01 1.13271427e+02 9.73310867e+01
 -1.00582504e+02 1.24592818e+02 8.72663438e+01
 -1.11098204e+02 1.34078864e+02 7.92637453e+01
 -1.17480893e+02 1.46805375e+02 6.55232310e+01
 -1.27541473e+02 1.49239094e+02 5.42028337e+01
 -1.26249569e+02 1.59135312e+02 4.38128644e+01
 -1.31322485e+02 1.62833732e+02 2.84146574e+01
 -1.40474980e+02 1.70437241e+02 1.65456527e+01
 -1.39785151e+02 1.66872903e+02 4.94004075e-01
 -1.37566387e+02 1.73551840e+02 -1.00066103e+01
 -1.40470133e+02 1.62742225e+02 -2.57779171e+01
 -1.33531741e+02 1.62511890e+02 -4.07068803e+01
 -1.22339717e+02 1.53971953e+02 -5.51685756e+01
 -1.22587405e+02 1.49465478e+02 -6.38238618e+01
 -1.14922951e+02 1.34384192e+02 -7.87013777e+01
 -1.06496705e+02 1.29439945e+02 -9.16455680e+01
 -9.57892537e+01 1.15031908e+02 -9.28659422e+01
 -8.51323338e+01 9.36580655e+01 -1.00979615e+02
 -7.30063477e+01 8.57559754e+01 -1.15976368e+02
 -5.77012862e+01 6.94865070e+01 -1.17777546e+02
 -3.54176746e+01 5.33671583e+01 -1.27478960e+02
 -3.05231105e+01 3.72590407e+01 -1.28095606e+02
 -7.94726255e+00 1.79540087e+01 -1.27024304e+02
 -3.35461860e+00 -9.47188263e-01 -1.32035718e+02
 1.67219813e+01 -2.02351645e+01 -1.30979797e+02
 -2.76844167e+01 3.80548347e+01 1.27409231e+02
 -4.70762565e+01 5.50455826e+01 1.27227851e+02
 -6.41259919e+01 6.82667063e+01 1.17633837e+02
 -7.62165679e+01 8.45646468e+01 1.11219501e+02
 -9.23020527e+01 9.46895702e+01 1.05840679e+02
 -1.00576655e+02 1.10647620e+02 1.02928848e+02
 -1.15104691e+02 1.22105634e+02 8.83641856e+01
 -1.21865135e+02 1.35718725e+02 7.25553948e+01
 -1.31739302e+02 1.46322979e+02 6.30321119e+01
 -1.44199067e+02 1.56215834e+02 5.26397409e+01
 -1.41781580e+02 1.57651348e+02 4.30223499e+01
 -1.55703113e+02 1.62710833e+02 3.09819853e+01
 -1.50564307e+02 1.67866292e+02 1.48999437e+01
 -1.59771421e+02 1.68703813e+02 1.03424018e+00
 -1.56876121e+02 1.67411012e+02 -9.59005090e+00
 -1.49053108e+02 1.62163590e+02 -2.45235424e+01
 -1.45826318e+02 1.53209408e+02 -4.00707977e+01
 -1.37742969e+02 1.44982412e+02 -4.88687608e+01
 -1.38332902e+02 1.42530262e+02 -6.76020174e+01
 -1.33657251e+02 1.40313113e+02 -7.48791521e+01
 -1.14261178e+02 1.23756427e+02 -8.05043235e+01
 -1.01224771e+02 1.15985739e+02 -9.45725963e+01
 -9.14112966e+01 9.67244017e+01 -1.08776513e+02
 -7.88760266e+01 8.63700422e+01 -1.15265074e+02
 -6.21596380e+01 6.87451535e+01 -1.17768668e+02
 -5.00255788e+01 5.89576123e+01 -1.24179227e+02
 -3.19774028e+01 2.74003983e+01 -1.26419381e+02
 -2.00187056e+01 2.32802370e+01 -1.21361927e+02
 -5.82712103e+00 -8.77178375e-01 -1.30666267e+02
 1.56273317e+01 -1.55080189e+01 -1.25318974e+02
 -3.98130981e+01 3.51669008e+01 1.29724959e+02
 -4.94658171e+01 4.80521713e+01 1.23144088e+02
 -6.61759467e+01 6.57923945e+01 1.20366564e+02
 -8.44840143e+01 8.27971975e+01 1.13802178e+02
 -1.02362769e+02 9.25592335e+01 9.88022675e+01
 -1.12976981e+02 1.01463811e+02 9.52559272e+01
 -1.31112999e+02 1.19527746e+02 8.26741859e+01
 -1.41643919e+02 1.27301161e+02 8.14214544e+01
 -1.52785179e+02 1.37668694e+02 6.73955726e+01
 -1.58896596e+02 1.48509326e+02 5.61352950e+01
 -1.63114139e+02 1.51493061e+02 4.49731411e+01
 -1.71544168e+02 1.57335401e+02 2.57281361e+01
 -1.73996056e+02 1.61001120e+02 1.41965123e+01
 -1.70702704e+02 1.66591743e+02 -3.12280537e+00
 -1.74575599e+02 1.61408203e+02 -1.65572225e+01
 -1.71310581e+02 1.54113477e+02 -1.88563354e+01
 -1.63427569e+02 1.51605399e+02 -4.24114975e+01
 -1.61076235e+02 1.47747351e+02 -5.06780109e+01
 -1.49575824e+02 1.37235062e+02 -6.51031795e+01
