-24.111 7.572 28.791
-24.34 7.591 28.902
-24.58 7.616 28.862
-24.84 7.649 28.672
-25.089 7.675 28.612
-25.288 7.685 28.823
-25.497 7.706 29.045
-25.727 7.723 29.075
-25.956 7.75 29.126
-26.175 7.769 29.247
-26.435 7.793 29.117
-26.695 7.835 28.886
-26.945 7.86 28.786
-27.164 7.88 28.957
-27.383 7.897 29.038
-27.602 7.917 29.209
-27.841 7.942 29.149
-28.071 7.96 29.21
-28.331 7.994 29.05
-28.621 8.043 28.668
-28.851 8.061 28.709
-29.08 8.088 28.76
-29.299 8.107 28.891
-29.559 8.14 28.71
-29.798 8.157 28.721
-30.028 8.183 28.731
-30.277 8.209 28.671
-30.537 8.243 28.511
-30.807 8.275 28.29
-31.067 8.318 28.09
-31.317 8.344 28.04
-31.75 8.325 29.87
-31.623 8.336 29.116
-32.02 8.359 29.679
-32.301 8.4 29.368
-32.56 8.433 29.208
-32.861 8.482 28.746
-33.182 8.529 28.224
-33.401 8.547 28.305
-33.61 8.567 28.496
-33.87 8.591 28.356
-34.11 8.617 28.336
-34.268 8.623 28.849
-34.487 8.632 28.99
-34.757 8.674 28.749
-35.027 8.707 28.529
-35.307 8.749 28.278
-35.516 8.758 28.439
-35.766 8.793 28.329
-36.046 8.835 28.078
-36.326 8.867 27.808
-38.023 8.973 23.092
-37.691 8.926 23.674
-37.956 9.196 23.358
-37.655 9.156 23.73
-38.277 9.253 22.806
-38.557 9.285 22.576
-38.806 9.32 22.485
-39.076 9.353 22.265
-39.377 9.403 21.863
-39.663 9.199 21.758
-39.657 9.435 21.603
-40.091 9.417 23.453
-39.912 9.413 23.04
-40.32 9.444 23.493
-40.6 9.476 23.242
67.333 0.114 -27.467
67.084 0.134 -27.315
67.121 0.37 -26.979
67.36 0.341 -27.11
66.883 0.375 -26.587
64.676 0.3 -25.03
64.915 0.281 -25.121
64.703 0.543 -24.834
64.952 0.515 -24.875
64.464 0.554 -24.593
64.225 0.574 -24.451
63.965 0.607 -24.632
63.726 0.628 -24.441
63.487 0.648 -24.289
63.238 0.667 -24.199
62.999 0.685 -24.118
62.76 0.714 -23.987
62.51 0.732 -23.946
62.261 0.759 -23.925
62.022 0.778 -23.835
61.773 0.806 -23.784
61.533 0.824 -23.703
61.284 0.851 -23.693
61.045 0.879 -23.652
60.796 0.898 -23.521
60.546 0.923 -23.641
60.307 0.936 -23.329
60.047 0.984 -23.751
59.818 0.998 -23.409
45.625 1.312 8.323
45.844 1.3 8.062
45.386 1.332 8.475
45.157 1.351 8.585
44.928 1.369 8.707
44.709 1.383 9.049
44.491 1.388 9.471
44.262 1.407 9.602
44.033 1.427 9.773
43.815 1.433 10.216
43.586 1.453 10.417
43.357 1.472 10.528
43.128 1.484 10.8
42.899 1.503 10.921
42.67 1.523 11.092
42.451 1.536 11.404
42.222 1.545 11.565
42.004 1.56 11.958
41.785 1.57 12.149
41.557 1.584 12.481
41.327 1.602 12.562
41.088 1.629 12.582
40.869 1.64 12.854
40.64 1.659 12.975
40.401 1.687 13.026
40.172 1.705 13.107
39.942 1.723 13.177
39.713 1.752 13.288
39.484 1.762 13.47
39.255 1.781 13.621
39.026 1.801 13.792
38.808 1.813 14.054
38.589 1.825 14.335
38.36 1.844 14.436
38.12 1.87 14.447
37.891 1.891 14.638
37.662 1.91 14.769
37.433 1.92 14.93
37.204 1.946 14.951
36.965 1.973 14.971
36.735 1.991 15.042
36.506 2.009 15.123
36.277 2.029 15.264
36.037 2.055 15.254
35.808 2.073 15.335
35.569 2.101 15.406
35.34 2.119 15.477
35.111 2.147 15.557
34.881 2.165 15.638
34.642 2.183 15.709
34.413 2.202 15.82
34.184 2.23 15.891
33.954 2.248 15.992
33.715 2.274 15.952
33.485 2.292 16.013
33.246 2.317 15.973
33.007 2.346 16.054
32.777 2.362 16.064
32.538 2.39 16.105
32.309 2.416 16.125
32.069 2.434 16.156
31.83 2.461 16.176
31.59 2.485 16.056
31.361 2.513 16.127
31.121 2.531 16.208
30.892 2.549 16.309
30.663 2.576 16.329
30.423 2.602 16.309
30.184 2.627 16.219
29.944 2.655 16.27
29.715 2.671 16.291
29.465 2.706 16.2
29.226 2.732 16.181
28.996 2.758 16.161
28.746 2.783 16.051
28.507 2.817 15.941
28.267 2.834 15.941
28.028 2.861 15.962
27.788 2.886 15.922
27.549 2.912 15.882
27.309 2.939 15.913
27.07 2.973 15.762
26.83 2.999 15.733
26.58 3.031 15.532
26.34 3.058 15.522
26.091 3.082 15.392
25.851 3.108 15.393
25.611 3.133 15.323
25.362 3.168 15.233
25.112 3.2 15.002
24.872 3.226 14.952
24.632 3.251 14.902
24.393 3.277 14.883
24.143 3.311 14.732
23.904 3.337 14.713
23.664 3.363 14.683
23.414 3.387 14.553
23.175 3.422 14.483
22.925 3.447 14.403
22.685 3.473 14.333
22.446 3.5 14.364
22.196 3.534 14.223
21.956 3.55 14.224
21.717 3.576 14.194
21.477 3.61 14.064
21.227 3.635 13.994
20.988 3.661 13.964
20.728 3.703 13.723
20.498 3.721 13.774
20.249 3.755 13.674
20.009 3.78 13.594
19.759 3.806 13.534
19.52 3.832 13.504
19.28 3.857 13.445
19.041 3.883 13.425
18.791 3.917 13.265
18.551 3.943 13.245
18.312 3.97 13.285
18.062 3.994 13.135
17.823 4.03 13.095
17.573 4.055 13.015
17.334 4.081 13.006
17.094 4.107 12.966
16.854 4.133 12.926
16.615 4.159 12.927
16.375 4.185 12.887
16.146 4.203 12.978
15.907 4.23 12.998
15.657 4.256 12.928
15.417 4.281 12.878
15.178 4.309 12.929
14.938 4.333 12.839
14.699 4.36 12.829
14.47 4.379 12.94
14.21 4.412 12.76
13.96 4.444 12.559
13.721 4.472 12.59
13.471 4.497 12.5
13.241 4.523 12.52
13.002 4.541 12.571
12.763 4.568 12.592
12.533 4.586 12.673
12.294 4.612 12.643
12.044 4.647 12.563
11.815 4.665 12.613
11.565 4.69 12.564
11.336 4.717 12.594
11.097 4.744 12.605
10.847 4.77 12.565
10.607 4.795 12.495
10.368 4.821 12.475
10.128 4.847 12.446
9.889 4.874 12.456
9.65 4.892 12.517
9.42 4.91 12.598
9.181 4.937 12.608
8.952 4.964 12.659
8.722 4.983 12.77
8.493 5.001 12.85
8.254 5.027 12.841
8.004 5.053 12.801
7.754 5.087 12.661
7.525 5.106 12.762
7.275 5.13 12.662
7.046 5.159 12.762
6.817 5.177 12.823
6.588 5.195 12.934
6.349 5.223 12.985
6.109 5.239 12.965
5.88 5.268 13.076
5.651 5.287 13.197
5.401 5.319 12.996
5.151 5.345 12.937
4.922 5.364 13.048
4.693 5.39 13.078
4.453 5.408 13.109
4.224 5.426 13.22
3.985 5.453 13.23
3.77 5.219 13.648
3.766 5.473 13.411
1.994 5.601 14.781
2.202 5.589 14.49
1.775 5.62 14.922
1.546 5.64 15.063
1.306 5.666 15.054
1.067 5.693 15.054
0.807 5.726 14.884
0.567 5.752 14.864
0.379 5.757 15.297
0.17 5.76 15.619
-0.049 5.778 15.75
-0.278 5.798 15.891
-0.476 5.81 16.223
-0.654 5.808 16.796
-0.873 5.819 17.027
-1.133 5.851 16.817
-1.373 5.878 16.817
-1.592 5.897 16.968
-1.8 5.908 17.2
-2.019 5.929 17.421
-2.248 5.947 17.512
-2.478 5.965 17.603
-2.666 5.969 17.995
-2.864 5.982 18.367
-3.073 5.994 18.639
-3.282 6.006 18.931
-3.501 6.016 19.112
-3.72 6.035 19.233
-3.929 6.045 19.475
-4.158 6.064 19.596
-4.387 6.091 19.616
-4.606 6.111 19.798
-4.825 6.12 19.949
-5.054 6.139 20.08
-5.253 6.151 20.382
-5.472 6.171 20.553
-5.67 6.184 20.875
-5.879 6.195 21.136
-6.108 6.214 21.247
-6.317 6.224 21.449
-6.536 6.244 21.65
-6.745 6.255 21.892
-6.964 6.274 22.013
-7.183 6.293 22.154
-7.412 6.311 22.255
-7.632 6.321 22.446
-7.84 6.341 22.647
-8.07 6.359 22.728
-8.268 6.371 23.02
-8.508 6.389 23.061
-8.747 6.415 23.031
-8.997 6.449 22.901
-9.226 6.467 23.002
-9.455 6.494 23.042
-9.705 6.528 22.892
-9.955 6.553 22.812
-10.144 6.556 23.184
-10.363 6.576 23.355
-10.592 6.594 23.416
-10.821 6.622 23.487
-11.091 6.653 23.216
-11.361 6.695 22.965
-11.591 6.712 22.986
-11.84 6.747 22.916
-12.07 6.765 22.996
-12.309 6.791 22.947
-12.539 6.81 23.058
-12.768 6.837 23.118
-12.997 6.855 23.189
-13.216 6.873 23.3
-13.435 6.892 23.431
-13.654 6.911 23.572
-13.884 6.929 23.643
-14.113 6.956 23.683
-14.322 6.968 23.945
-14.5 6.972 24.377
-14.709 6.982 24.589
-14.948 7.009 24.579
-15.218 7.042 24.379
-15.438 7.06 24.47
-15.647 7.071 24.711
-15.866 7.09 24.852
-16.166 7.147 24.33
-16.426 7.171 24.2
-16.676 7.205 24.04
-16.946 7.237 23.809
-17.196 7.271 23.689
-17.435 7.299 23.729
-17.644 7.308 23.891
-17.863 7.328 24.072
-18.093 7.345 24.103
-18.317 7.128 24.389
-18.322 7.373 24.193
-19.938 7.217 26.472
-19.718 7.199 26.361
-19.932 7.463 26.327
-19.723 7.443 26.125
-20.12 7.467 26.729
-20.299 7.471 27.141
-20.579 7.511 26.8
-20.829 7.536 26.71
-21.027 7.548 27.012
-21.226 7.559 27.274
-21.445 7.579 27.435
-21.654 7.588 27.606
-21.873 7.607 27.707
-22.103 7.634 27.768
-22.332 7.652 27.848
-22.51 7.656 28.271
-22.791 7.697 27.94
-23.02 7.724 27.97
-23.239 7.733 28.131
-23.427 7.746 28.483
-23.626 7.757 28.735
-23.866 7.784 28.755
-24.095 7.801 28.786
-24.314 7.818 28.857
-24.574 7.853 28.717
-24.854 7.894 28.426
-25.053 7.904 28.657
-25.262 7.925 28.868
-25.471 7.934 29.03
-25.7 7.962 29.09
-25.95 7.987 29.02
-26.19 8.013 29.011
-26.439 8.038 28.921
-26.72 8.079 28.59
-26.99 8.12 28.309
-27.229 8.147 28.339
-27.448 8.156 28.47
-27.617 8.16 28.883
-27.856 8.186 28.873
-28.075 8.205 28.994
-28.305 8.232 29.035
-28.595 8.272 28.653
-28.845 8.307 28.573
-29.054 8.317 28.775
-29.313 8.352 28.654
-29.563 8.375 28.514
-29.793 8.403 28.595
-30.032 8.429 28.545
-30.282 8.454 28.455
-30.521 8.48 28.426
-30.791 8.522 28.195
-31.062 8.555 27.964
-31.311 8.58 27.894
-31.556 8.37 28.03
-31.561 8.606 27.834
-32.315 8.644 29.092
-32.035 8.602 29.373
-32.616 8.692 28.65
-32.906 8.734 28.349
-33.186 8.775 28.038
-33.436 8.8 27.958
-33.676 8.826 27.949
-33.885 8.836 28.14
-34.134 8.871 28.03
-34.343 8.881 28.231
-34.532 8.892 28.523
-34.761 8.92 28.563
-35.052 8.96 28.232
-35.322 8.993 28.002
-35.592 9.035 27.781
-35.821 9.052 27.802
-36.061 9.079 27.832
-36.29 9.096 27.853
-37.324 9.1 24.372
-37.66 9.393 23.614
-37.349 9.354 24.056
-37.93 9.434 23.353
-38.271 9.49 22.721
-38.551 9.531 22.42
-38.79 9.559 22.45
-39.081 9.599 22.109
-39.361 9.641 21.818
-39.651 9.682 21.507
68.086 0.295 -27.825
67.848 0.31 -27.433
67.874 0.557 -27.538
68.123 0.529 -27.559
67.598 0.336 -27.482
67.636 0.562 -27.116
67.397 0.585 -26.844
65.191 0.503 -25.127
65.441 0.468 -25.026
65.218 0.737 -24.871
65.467 0.717 -25.022
64.968 0.762 -24.95
64.73 0.784 -24.729
64.49 0.801 -24.668
64.241 0.83 -24.608
64.002 0.849 -24.477
63.753 0.869 -24.335
63.514 0.888 -24.204
63.275 0.908 -24.073
63.026 0.928 -23.932
62.786 0.955 -23.902
62.537 0.988 -24.062
62.287 1.006 -24.031
62.048 1.027 -23.84
61.799 1.053 -23.87
61.56 1.073 -23.688
61.311 1.093 -23.567
61.061 1.133 -23.848
60.811 1.16 -23.858
60.562 1.186 -23.908
60.312 1.211 -23.988
60.062 1.245 -24.138
44.933 1.624 8.47
45.173 1.598 8.5
44.693 1.648 8.37
44.486 1.646 8.943
44.267 1.661 9.346
44.038 1.671 9.527
43.82 1.685 9.899
43.601 1.697 10.161
43.372 1.708 10.393
43.144 1.73 10.664
42.915 1.749 10.765
42.675 1.766 10.796
42.456 1.778 11.068
42.217 1.804 11.068
41.988 1.824 11.249
41.769 1.836 11.521
41.551 1.848 11.803
41.322 1.861 12.074
41.103 1.872 12.336
40.864 1.9 12.407
40.646 1.913 12.699
40.416 1.931 12.8
40.177 1.958 12.8
39.948 1.976 12.881
39.729 1.988 13.183
39.5 2.009 13.384
39.261 2.035 13.354
39.042 2.038 13.676
38.823 2.059 13.898
38.594 2.078 14.049
38.355 2.094 14.029
38.125 2.122 14.09
37.896 2.141 14.231
37.667 2.152 14.433
37.449 2.173 14.644
37.209 2.191 14.725
36.98 2.218 14.755
36.751 2.237 14.886
36.511 2.254 14.907
36.272 2.281 14.917
36.043 2.299 15.008
35.814 2.326 15.059
35.574 2.353 15.049
35.345 2.372 15.17
35.116 2.391 15.291
34.887 2.411 15.472
34.658 2.429 15.553
34.429 2.448 15.664
34.2 2.468 15.845
33.97 2.484 15.836
33.731 2.511 15.856
33.491 2.537 15.837
33.262 2.555 15.928
33.033 2.584 16.018
32.793 2.6 16.029
32.564 2.629 16.12
32.325 2.654 16.08
32.085 2.671 16.06
31.856 2.698 16.111
31.616 2.724 16.101
31.377 2.75 16.061
31.137 2.776 16.052
30.898 2.802 16.012
30.668 2.819 16.033
30.429 2.846 16.033
30.189 2.873 16.084
29.95 2.898 16.004
29.721 2.917 16.115
29.491 2.944 16.165
29.252 2.969 16.095
29.002 2.994 16.015
28.773 3.022 16.056
28.533 3.047 15.996
28.293 3.073 15.966
28.044 3.098 15.886
27.804 3.133 15.826
27.565 3.159 15.787
27.325 3.184 15.707
27.075 3.209 15.627
26.835 3.243 15.517
26.596 3.269 15.457
26.346 3.294 15.377
26.096 3.327 15.216
25.857 3.361 15.106
25.627 3.379 15.177
25.377 3.413 15.047
25.138 3.439 15.007
24.898 3.465 14.967
24.648 3.489 14.867
24.409 3.515 14.807
24.159 3.549 14.677
23.919 3.575 14.647
23.68 3.601 14.608
23.43 3.635 14.477
23.19 3.66 14.407
22.941 3.685 14.348
22.701 3.71 14.278
22.462 3.745 14.188
22.222 3.771 14.158
21.983 3.798 14.168
21.743 3.823 14.119
21.493 3.848 14.009
21.243 3.882 13.908
20.994 3.907 13.778
20.744 3.94 13.638
20.504 3.966 13.588
20.265 3.992 13.578
20.025 4.019 13.589
19.786 4.044 13.529
19.546 4.072 13.56
19.296 4.096 13.429
19.057 4.129 13.299
18.817 4.147 13.34
18.578 4.182 13.29
18.328 4.207 13.16
18.088 4.233 13.15
17.849 4.259 13.11
17.599 4.284 13.061
17.36 4.311 13.071
17.12 4.337 13.041
16.881 4.371 12.931
16.641 4.39 13.002
16.401 4.414 12.912
16.152 4.44 12.882
15.912 4.475 12.812
15.673 4.493 12.863
15.433 4.518 12.793
15.194 4.544 12.763
14.954 4.571 12.774
14.725 4.589 12.865
14.476 4.625 12.805
14.236 4.651 12.775
13.986 4.675 12.665
13.747 4.701 12.625
13.497 4.735 12.475
13.258 4.762 12.505
13.028 4.779 12.546
12.789 4.798 12.637
12.549 4.833 12.587
12.31 4.859 12.557
12.07 4.876 12.548
11.841 4.903 12.618
11.602 4.921 12.669
11.362 4.956 12.609
11.112 4.981 12.519
10.883 4.999 12.6
10.644 5.027 12.641
10.415 5.045 12.752
10.165 5.079 12.621
9.925 5.105 12.591
9.686 5.132 12.582
9.446 5.148 12.582
9.228 5.169 12.784
8.988 5.195 12.774
8.749 5.222 12.774
8.509 5.239 12.815
8.259 5.264 12.735
8.02 5.299 12.665
7.77 5.325 12.625
7.541 5.343 12.676
7.302 5.37 12.697
7.062 5.396 12.697
6.823 5.414 12.718
6.594 5.442 12.798
6.364 5.46 12.879
6.125 5.486 12.849
5.885 5.513 12.87
5.646 5.53 12.901
5.396 5.564 12.78
5.157 5.59 12.761
4.938 5.601 12.992
4.709 5.628 13.023
4.48 5.648 13.194
4.25 5.666 13.265
3.99 5.7 13.094
3.761 5.717 13.145
3.536 5.491 13.482
3.532 5.736 13.286
3.359 5.481 14.166
3.333 5.749 13.608
2.431 5.571 14.379
2.712 5.532 14.8
2.448 5.809 14.353
2.687 5.792 14.333
2.229 5.828 14.504
1.989 5.855 14.525
1.801 5.851 15.018
1.582 5.871 15.189
1.333 5.906 15.099
1.083 5.931 15.009
0.843 5.957 14.979
0.593 5.981 14.869
0.385 5.994 15.191
0.186 6.007 15.553
-0.033 6.018 15.755
-0.262 6.045 15.795
-0.501 6.061 15.796
-0.731 6.089 15.846
-0.888 6.079 16.58
-1.107 6.09 16.822
-1.347 6.116 16.782
-1.576 6.134 16.873
-1.784 6.146 17.165
-2.003 6.166 17.326
-2.233 6.183 17.397
-2.462 6.211 17.467
-2.66 6.215 17.86
-2.859 6.219 18.232
-3.047 6.223 18.664
-3.246 6.236 18.986
-3.464 6.255 19.157
-3.694 6.274 19.258
-3.923 6.292 19.329
-4.152 6.309 19.4
-4.361 6.321 19.672
-4.58 6.34 19.823
-4.789 6.352 20.084
-4.987 6.364 20.416
-5.227 6.391 20.437
-5.456 6.409 20.488
-5.655 6.412 20.87
-5.853 6.425 21.222
-6.062 6.436 21.463
-6.291 6.454 21.534
-6.5 6.474 21.735
-6.729 6.493 21.856
-6.948 6.512 21.967
-7.178 6.529 22.028
-7.407 6.547 22.099
-7.626 6.567 22.26
-7.845 6.587 22.441
-8.064 6.605 22.552
-8.293 6.623 22.623
-8.553 6.656 22.453
-8.782 6.675 22.544
-9.001 6.694 22.705
-9.241 6.719 22.635
-9.491 6.753 22.515
-9.73 6.781 22.545
-9.949 6.79 22.686
-10.168 6.818 22.787
-10.387 6.828 22.989
-10.627 6.855 22.989
-10.877 6.879 22.859
-11.127 6.913 22.708
-11.366 6.939 22.719
-11.595 6.958 22.83
-11.825 6.984 22.83
-12.064 7.011 22.821
-12.304 7.028 22.841
-12.523 7.047 22.972
-12.742 7.066 23.133
-12.971 7.094 23.194
-13.19 7.112 23.295
-13.419 7.129 23.346
-13.659 7.156 23.366
-13.898 7.182 23.336
-14.117 7.202 23.487
-14.316 7.203 23.779
-14.504 7.217 24.151
-14.703 7.219 24.453
-14.963 7.253 24.333
-15.213 7.287 24.203
-15.432 7.297 24.374
-15.651 7.316 24.525
-15.921 7.357 24.234
-16.181 7.39 24.024
-16.4 7.409 24.185
-16.691 7.449 23.804
-16.94 7.484 23.683
-17.17 7.51 23.694
-17.409 7.527 23.694
-17.649 7.554 23.715
-17.858 7.573 23.876
-18.077 7.592 24.027
-18.316 7.61 24.068
-18.592 7.405 23.933
-18.556 7.636 24.038
-19.534 7.44 25.743
-19.346 7.437 25.371
-19.508 7.67 25.798
-19.31 7.658 25.517
-19.707 7.681 26.09
-19.936 7.699 26.151
-20.166 7.726 26.181
-20.385 7.745 26.322
-20.614 7.763 26.403
-20.823 7.782 26.564
-21.042 7.801 26.685
-21.261 7.82 26.836
-21.46 7.823 27.148
-21.659 7.833 27.38
-21.888 7.852 27.491
-22.097 7.871 27.672
-22.316 7.891 27.823
-22.556 7.916 27.753
-22.795 7.942 27.764
-23.024 7.96 27.825
-23.233 7.98 28.006
-23.422 7.982 28.318
-23.641 8.001 28.469
-23.87 8.029 28.529
-24.079 8.038 28.681
-24.319 8.065 28.711
-24.568 8.099 28.591
-24.828 8.132 28.4
-25.037 8.142 28.592
-25.267 8.16 28.663
-25.486 8.179 28.824
-25.705 8.207 28.884
-25.955 8.232 28.814
-26.174 8.25 28.905
-26.444 8.284 28.735
-26.755 8.34 28.153
-26.994 8.357 28.183
-27.234 8.392 28.103
-27.473 8.418 28.083
-27.692 8.428 28.255
-27.871 8.431 28.657
-28.069 8.452 28.878
-28.35 8.484 28.618
-28.61 8.517 28.417
-28.839 8.544 28.478
-29.058 8.562 28.579
-29.298 8.589 28.589
-29.568 8.622 28.369
-29.797 8.639 28.399
-30.037 8.674 28.339
-30.286 8.7 28.289
-30.526 8.725 28.24
-30.796 8.758 27.999
-31.066 8.801 27.818
-31.305 8.818 27.809
-31.525 8.845 27.89
-31.79 8.633 27.855
-31.784 8.87 27.759
-31.969 8.637 28.287
-32.034 8.904 27.629
-32.921 8.978 28.073
-32.63 8.938 28.434
-33.211 9.018 27.732
-33.471 9.052 27.561
-34.129 9.107 27.894
-33.92 9.098 27.733
-34.378 9.142 27.794
-34.659 9.174 27.553
-34.878 9.193 27.685
-35.087 9.212 27.846
-35.336 9.238 27.776
-35.596 9.272 27.625
-35.856 9.306 27.485
-36.116 9.339 27.325
-36.376 9.373 27.154
-37.654 9.639 23.468
-37.363 9.598 23.789
-37.934 9.681 23.238
-38.244 9.729 22.736
-38.525 9.771 22.465
-38.774 9.796 22.385
-39.085 9.845 21.913
-39.335 9.871 21.873
67.912 0.785 -27.061
68.15 0.772 -27.363
67.675 0.779 -26.247
67.435 0.806 -26.236
65.706 0.69 -25.022
65.956 0.672 -25.103
65.743 0.933 -24.827
65.982 0.904 -24.917
65.493 0.957 -24.977
65.255 0.979 -24.725
65.005 1.005 -24.725
64.756 1.024 -24.664
64.517 1.051 -24.613
64.267 1.078 -24.613
64.029 1.091 -24.341
63.779 1.109 -24.25
63.54 1.129 -24.119
63.291 1.157 -24.058
63.041 1.182 -24.168
62.791 1.221 -24.52
62.552 1.242 -24.298
62.303 1.26 -24.248
62.053 1.295 -24.318
61.804 1.32 -24.408
61.553 1.362 -24.668
61.304 1.38 -24.588
61.065 1.392 -24.336
60.826 1.419 -24.315
60.577 1.448 -24.245
43.575 1.97 9.392
43.804 1.95 9.231
42.93 1.992 10.519
43.148 1.979 10.177
42.701 2.004 10.75
42.472 2.032 10.831
42.233 2.049 10.862
42.004 2.068 11.013
41.775 2.089 11.224
41.556 2.1 11.446
41.317 2.12 11.587
41.109 2.126 12.07
40.89 2.139 12.392
40.661 2.157 12.493
40.432 2.176 12.593
40.203 2.195 12.745
39.963 2.213 12.805
39.745 2.234 13.027
39.516 2.244 13.208
39.287 2.272 13.279
39.047 2.29 13.33
38.829 2.311 13.571
38.6 2.321 13.773
38.37 2.339 13.843
38.131 2.366 13.844
37.891 2.392 13.814
37.662 2.412 14.015
37.443 2.423 14.207
37.214 2.442 14.338
36.985 2.461 14.469
36.746 2.488 14.509
36.517 2.507 14.6
36.277 2.534 14.631
36.048 2.551 14.651
35.819 2.579 14.732
35.579 2.596 14.753
35.35 2.615 14.894
35.121 2.643 14.985
34.892 2.653 15.136
34.673 2.673 15.347
34.434 2.692 15.448
34.205 2.711 15.549
33.965 2.744 15.419
33.726 2.762 15.449
33.496 2.781 15.591
33.267 2.8 15.722
33.038 2.828 15.772
32.819 2.838 15.974
32.57 2.864 15.914
32.33 2.898 15.824
32.09 2.923 15.764
31.861 2.942 15.855
31.632 2.962 16.046
31.403 2.988 16.046
31.163 3.015 16.037
30.924 3.032 16.077
30.684 3.067 15.987
30.445 3.083 15.958
30.215 3.111 16.038
29.986 3.129 16.099
29.747 3.156 16.12
29.497 3.18 16.01
29.257 3.214 15.889
29.028 3.232 15.96
28.788 3.258 15.95
28.549 3.284 15.891
28.299 3.318 15.79
28.059 3.343 15.68
27.82 3.369 15.661
27.57 3.403 15.551
27.33 3.428 15.451
27.091 3.453 15.411
26.851 3.48 15.431
26.612 3.505 15.351
26.372 3.531 15.312
26.122 3.565 15.161
25.872 3.59 15.091
25.633 3.625 15.001
25.393 3.651 14.971
25.143 3.675 14.871
24.904 3.701 14.852
24.664 3.726 14.772
24.425 3.762 14.722
24.185 3.788 14.682
23.935 3.813 14.602
23.696 3.837 14.512
23.446 3.871 14.362
23.206 3.897 14.322
22.967 3.924 14.333
22.717 3.958 14.212
22.488 3.975 14.243
22.238 4.01 14.143
21.998 4.035 14.073
21.749 4.069 13.943
21.499 4.093 13.802
21.259 4.119 13.783
21.02 4.144 13.743
20.77 4.18 13.673
20.53 4.206 13.633
20.301 4.223 13.664
20.051 4.248 13.604
19.802 4.283 13.494
19.562 4.307 13.414
19.322 4.333 13.384
19.083 4.361 13.445
18.843 4.386 13.345
18.594 4.42 13.235
18.344 4.453 13.054
18.104 4.471 13.115
17.875 4.498 13.135
17.636 4.524 13.136
17.386 4.549 13.026
17.147 4.576 13.066
16.907 4.603 13.067
16.668 4.629 13.037
16.428 4.655 12.997
16.178 4.679 12.897
15.939 4.714 12.797
15.689 4.74 12.747
15.46 4.758 12.838
15.22 4.785 12.849
14.981 4.811 12.849
14.741 4.837 12.809
14.502 4.854 12.82
14.262 4.88 12.81
14.023 4.907 12.821
13.783 4.933 12.781
13.534 4.968 12.691
13.294 4.994 12.661
13.055 5.02 12.631
12.825 5.037 12.692
12.586 5.064 12.692
12.346 5.09 12.693
12.097 5.116 12.613
11.857 5.142 12.603
11.608 5.167 12.533
11.378 5.194 12.564
11.139 5.221 12.564
10.899 5.237 12.565
10.67 5.265 12.635
10.431 5.283 12.706
10.202 5.302 12.807
9.952 5.336 12.667
9.712 5.363 12.687
9.473 5.389 12.658
9.223 5.414 12.568
8.994 5.432 12.649
8.754 5.467 12.588
8.515 5.485 12.639
8.275 5.511 12.62
8.046 5.53 12.741
7.817 5.557 12.781
7.567 5.581 12.671
7.328 5.608 12.692
7.099 5.627 12.802
6.859 5.653 12.763
6.62 5.679 12.763
6.38 5.706 12.784
6.151 5.716 12.925
5.901 5.749 12.754
5.652 5.775 12.715
5.412 5.811 12.675
5.193 5.821 12.876
4.954 5.847 12.856
4.714 5.874 12.877
4.506 5.877 13.189
4.277 5.905 13.28
4.027 5.931 13.22
3.777 5.964 13.07
3.527 5.989 12.95
3.298 6.017 13.04
3.094 5.766 13.659
3.1 6.021 13.422
2.916 5.764 14.252
2.901 6.025 13.825
2.682 6.036 14.067
2.453 6.055 14.188
2.255 6.067 14.489
1.338 6.151 14.913
1.577 6.124 14.872
1.099 6.177 14.883
0.849 6.203 14.843
0.62 6.22 14.884
0.421 6.224 15.266
0.192 6.243 15.387
-0.017 6.263 15.609
-0.256 6.281 15.68
-0.486 6.308 15.67
-0.725 6.335 15.69
-0.933 6.347 16.002
-1.111 6.344 16.575
-1.341 6.361 16.606
-1.57 6.381 16.747
-1.768 6.384 17.109
-1.988 6.402 17.22
-2.217 6.422 17.361
-2.436 6.441 17.523
-2.644 6.452 17.774
-2.853 6.464 18.036
-3.021 6.453 18.73
-3.219 6.466 19.052
-3.438 6.484 19.172
-3.678 6.512 19.213
-3.897 6.521 19.364
-4.126 6.55 19.475
-4.345 6.559 19.646
-4.564 6.579 19.818
-4.763 6.591 20.099
-4.982 6.601 20.291
-5.211 6.629 20.371
-5.43 6.639 20.543
-5.618 6.642 20.945
-5.817 6.655 21.257
-6.026 6.666 21.519
-6.255 6.685 21.62
-6.474 6.704 21.791
-6.713 6.731 21.801
-6.932 6.75 21.922
-7.162 6.767 21.963
-7.391 6.785 22.064
-7.61 6.805 22.235
-7.819 6.824 22.406
-8.069 6.849 22.316
-8.369 6.897 21.824
-8.599 6.924 21.835
-8.818 6.934 22.036
-9.047 6.962 22.097
-9.266 6.98 22.218
-9.485 6.99 22.379
-9.704 7.009 22.53
-9.923 7.029 22.691
-10.173 7.054 22.631
-10.423 7.088 22.481
-10.652 7.105 22.532
-10.891 7.132 22.562
-11.11 7.152 22.713
-11.33 7.17 22.814
-11.569 7.197 22.845
-11.809 7.222 22.785
-12.038 7.24 22.846
-12.277 7.266 22.826
-12.507 7.285 22.937
-12.726 7.304 23.058
-12.955 7.331 23.129
-13.174 7.35 23.25
-13.414 7.376 23.22
-13.643 7.394 23.301
-13.882 7.42 23.271
-14.101 7.43 23.462
-14.3 7.442 23.744
-14.489 7.445 24.146
-14.708 7.464 24.257
-14.957 7.498 24.147
-15.187 7.517 24.258
-15.416 7.534 24.299
-15.645 7.561 24.339
-15.926 7.602 24.028
-16.155 7.629 24.059
-16.405 7.655 23.989
-16.675 7.687 23.758
-16.914 7.712 23.688
-17.154 7.739 23.699
-17.403 7.774 23.599
-17.623 7.792 23.69
-17.862 7.81 23.74
-18.081 7.837 23.831
-18.331 7.863 23.781
-18.54 7.873 23.983
-18.785 7.663 24.078
-18.749 7.884 24.214
-18.953 7.659 24.632
-18.917 7.889 24.697
-19.131 7.664 25.064
-19.095 7.893 25.119
-19.284 7.897 25.501
-19.502 7.916 25.673
-19.701 7.918 25.975
-19.91 7.938 26.176
-20.14 7.956 26.217
-20.379 7.982 26.207
-20.608 8.01 26.278
-20.807 8.011 26.57
-21.026 8.03 26.67
-21.245 8.058 26.771
-21.444 8.059 27.043
-21.643 8.072 27.375
-21.852 8.082 27.566
-22.071 8.1 27.677
-22.29 8.119 27.828
-22.529 8.154 27.758
-22.769 8.172 27.779
-22.988 8.19 27.89
-23.217 8.218 27.95
-23.447 8.235 27.991
-23.625 8.239 28.444
-23.844 8.258 28.545
-24.074 8.275 28.585
-24.313 8.301 28.586
-24.583 8.343 28.325
-24.812 8.361 28.385
-25.032 8.379 28.486
-25.261 8.407 28.577
-25.48 8.416 28.708
-25.709 8.443 28.749
-25.949 8.469 28.729
-26.168 8.488 28.83
-26.479 8.535 28.298
-26.8 8.591 27.696
-27.06 8.625 27.555
-27.289 8.651 27.576
-27.498 8.662 27.787
-27.717 8.68 27.898
-27.906 8.693 28.23
-28.084 8.696 28.632
-28.334 8.721 28.542
-28.624 8.771 28.161
-28.843 8.789 28.262
-29.063 8.799 28.433
-29.302 8.825 28.423
-29.552 8.859 28.293
-29.801 8.885 28.223
-30.051 8.918 28.083
-30.291 8.945 28.083
-30.52 8.962 28.124
-30.79 9.004 27.883
-31.05 9.029 27.763
-31.29 9.055 27.754
-31.519 9.082 27.764
-31.758 9.108 27.754
-32.038 9.15 27.493
-32.304 8.937 27.429
-32.329 9.19 27.112
-34.423 9.403 27.357
-34.235 9.391 27.055
-34.663 9.419 27.347
-34.902 9.446 27.358
-35.142 9.473 27.348
-35.361 9.491 27.479
-35.58 9.509 27.56
-35.86 9.551 27.279
-36.181 9.598 26.757
-37.648 9.877 23.403
-37.378 9.843 23.563
-37.948 9.925 22.951
-38.218 9.958 22.751
-38.499 10 22.49
-38.799 10.049 22.068
-39.049 10.075 21.998
68.878 0.705 -27.696
68.638 0.732 -27.666
68.676 0.961 -27.158
68.916 0.935 -27.129
66.221 0.892 -25.189
66.008 1.16 -25.073
66.248 1.141 -25.184
65.77 1.171 -24.842
65.52 1.198 -24.851
65.271 1.219 -24.67
65.032 1.246 -24.63
64.783 1.265 -24.559
64.543 1.291 -24.558
64.305 1.304 -24.276
64.056 1.332 -24.196
63.806 1.356 -24.346
63.556 1.39 -24.476
63.295 1.436 -24.988
63.046 1.463 -24.978
62.807 1.475 -24.746
62.568 1.495 -24.595
62.318 1.529 -24.735
62.068 1.562 -24.906
61.818 1.588 -24.935
61.58 1.609 -24.744
61.33 1.636 -24.744
61.091 1.646 -24.542
60.853 1.66 -24.2
42.238 2.303 10.625
42.467 2.282 10.394
42.02 2.316 10.937
41.78 2.333 10.948
41.562 2.346 11.28
41.332 2.365 11.401
41.114 2.378 11.723
40.895 2.389 11.995
40.666 2.401 12.236
40.437 2.428 12.267
40.209 2.441 12.569
39.979 2.459 12.65
39.75 2.479 12.831
39.521 2.499 12.992
39.292 2.517 13.063
39.053 2.543 13.053
38.834 2.554 13.285
38.605 2.566 13.536
38.386 2.585 13.698
38.147 2.604 13.809
37.918 2.632 13.879
37.678 2.648 13.86
37.449 2.667 13.991
37.22 2.695 14.081
36.991 2.714 14.182
36.762 2.734 14.333
36.532 2.752 14.424
36.303 2.77 14.535
36.064 2.789 14.636
35.835 2.816 14.647
35.605 2.834 14.738
35.366 2.853 14.849
35.147 2.872 14.99
34.908 2.9 15.03
34.678 2.917 15.061
34.439 2.943 15.071
34.2 2.971 15.132
33.97 2.988 15.132
33.731 3.016 15.213
33.502 3.033 15.264
33.262 3.06 15.294
33.033 3.079 15.375
32.804 3.106 15.406
32.575 3.115 15.557
32.346 3.143 15.648
32.106 3.17 15.648
31.867 3.187 15.679
31.637 3.213 15.679
31.398 3.24 15.69
31.168 3.258 15.73
30.939 3.276 15.851
30.7 3.304 15.912
30.471 3.321 15.953
30.241 3.34 16.053
30.002 3.375 15.993
29.762 3.392 16.004
29.513 3.426 15.864
29.273 3.452 15.824
29.033 3.486 15.704
28.784 3.511 15.634
28.544 3.535 15.534
28.304 3.562 15.524
28.065 3.597 15.444
27.836 3.616 15.565
27.596 3.641 15.505
27.346 3.675 15.365
27.096 3.7 15.275
26.857 3.725 15.195
26.617 3.75 15.155
26.378 3.776 15.136
26.128 3.811 15.025
25.888 3.836 14.976
25.649 3.862 14.926
25.409 3.887 14.866
25.17 3.922 14.786
24.92 3.948 14.726
24.68 3.974 14.706
24.441 4 14.697
24.201 4.025 14.607
23.951 4.059 14.466
23.712 4.076 14.487
23.472 4.109 14.347
23.222 4.135 14.267
22.972 4.168 14.116
22.733 4.194 14.097
22.493 4.221 14.077
22.254 4.255 13.977
22.004 4.281 13.937
21.765 4.307 13.917
21.525 4.332 13.827
21.285 4.357 13.778
21.046 4.383 13.758
20.806 4.41 13.768
20.567 4.436 13.749
20.327 4.462 13.719
20.078 4.488 13.659
19.838 4.522 13.539
19.588 4.547 13.449
19.349 4.573 13.409
19.109 4.599 13.389
18.859 4.633 13.259
18.62 4.659 13.219
18.38 4.676 13.25
18.141 4.702 13.22
17.901 4.728 13.211
17.662 4.756 13.251
17.412 4.78 13.121
17.173 4.814 13.021
16.943 4.833 13.142
16.694 4.859 13.082
16.454 4.893 12.982
16.194 4.917 12.832
15.965 4.945 12.913
15.725 4.97 12.823
15.476 4.996 12.793
15.236 5.022 12.763
14.997 5.048 12.733
14.767 5.075 12.794
14.528 5.092 12.805
14.289 5.12 12.845
14.059 5.137 12.876
13.799 5.171 12.736
13.56 5.197 12.696
13.331 5.224 12.766
13.081 5.249 12.686
12.841 5.276 12.667
12.612 5.293 12.738
12.362 5.329 12.658
12.123 5.355 12.648
11.873 5.38 12.558
11.634 5.406 12.528
11.404 5.433 12.569
11.165 5.45 12.599
10.925 5.476 12.57
10.686 5.503 12.59
10.457 5.521 12.651
10.217 5.548 12.661
9.968 5.573 12.591
9.728 5.599 12.572
9.489 5.626 12.602
9.26 5.645 12.693
9.02 5.67 12.623
8.77 5.705 12.563
8.541 5.723 12.604
8.302 5.749 12.614
8.062 5.768 12.685
7.823 5.803 12.615
7.583 5.819 12.606
7.344 5.846 12.606
7.105 5.874 12.677
6.875 5.891 12.717
6.646 5.909 12.798
6.407 5.937 12.849
6.177 5.964 12.889
5.917 5.997 12.709
5.678 6.014 12.72
5.449 6.042 12.79
5.219 6.06 12.871
4.97 6.085 12.791
4.73 6.112 12.832
4.491 6.139 12.832
4.262 6.157 12.893
4.022 6.183 12.903
3.783 6.209 12.864
3.543 6.237 12.904
3.294 6.262 12.844
3.064 6.28 12.925
2.835 6.308 12.976
2.657 6.295 13.569
2.469 6.301 14.062
2.24 6.32 14.163
1.344 6.396 14.697
1.562 6.376 14.506
1.115 6.415 14.858
0.875 6.432 14.859
0.646 6.459 14.889
0.417 6.477 14.98
0.198 6.498 15.191
-0.021 6.507 15.353
-0.25 6.536 15.443
-0.49 6.562 15.424
-0.739 6.588 15.394
-0.969 6.605 15.435
-1.157 6.602 15.958
-1.335 6.607 16.46
-1.575 6.625 16.491
-1.783 6.646 16.732
-1.971 6.641 17.215
-2.18 6.652 17.467
-2.399 6.672 17.658
-2.638 6.699 17.669
-2.847 6.71 17.92
-3.015 6.708 18.523
-3.203 6.712 18.946
-3.423 6.722 19.107
-3.652 6.741 19.258
-3.87 6.761 19.439
-4.1 6.779 19.52
-4.329 6.797 19.581
-4.538 6.809 19.853
-4.747 6.829 20.074
-4.976 6.847 20.145
-5.195 6.866 20.296
-5.424 6.884 20.367
-5.633 6.895 20.588
-5.832 6.899 21.001
-6.02 6.913 21.403
-6.229 6.923 21.614
-6.458 6.941 21.675
-6.687 6.969 21.746
-6.916 6.987 21.867
-7.125 6.998 22.068
-7.365 7.025 22.089
-7.594 7.043 22.18
-7.834 7.067 22.08
-8.134 7.125 21.598
-8.384 7.15 21.488
-8.603 7.168 21.599
-8.832 7.187 21.72
-9.051 7.206 21.881
-9.26 7.217 22.102
-9.49 7.235 22.193
-9.719 7.262 22.234
-9.938 7.281 22.345
-10.188 7.307 22.305
-10.407 7.326 22.446
-10.636 7.344 22.537
-10.855 7.362 22.618
-11.084 7.39 22.718
-11.314 7.408 22.759
-11.553 7.434 22.759
-11.803 7.459 22.679
-12.032 7.487 22.74
-12.262 7.504 22.771
-12.47 7.524 22.982
-12.71 7.541 22.983
-12.939 7.569 23.073
-13.179 7.586 23.084
-13.408 7.614 23.145
-13.647 7.639 23.095
-13.887 7.666 23.095
-14.085 7.677 23.357
-14.274 7.68 23.729
-14.473 7.683 24.061
-14.702 7.71 24.132
-14.952 7.735 24.042
-15.171 7.754 24.163
-15.39 7.773 24.314
-15.64 7.807 24.184
-15.92 7.839 23.913
-16.149 7.867 23.963
-16.399 7.891 23.853
-16.659 7.934 23.643
-16.898 7.951 23.663
-17.148 7.985 23.533
-17.398 8.01 23.453
-17.617 8.029 23.604
-17.856 8.055 23.544
-18.106 8.09 23.464
-18.325 8.109 23.605
-18.534 8.119 23.807
-18.733 8.131 24.109
-18.921 8.135 24.521
-19.079 8.122 25.104
-19.288 8.142 25.306
-19.497 8.153 25.547
-19.685 8.156 25.919
-19.894 8.176 26.131
-20.113 8.194 26.221
-20.353 8.212 26.252
-20.572 8.23 26.363
-20.801 8.257 26.414
-21.01 8.268 26.635
-21.239 8.295 26.676
-21.459 8.314 26.797
-21.657 8.325 27.068
-21.846 8.328 27.441
-22.065 8.347 27.562
-22.294 8.365 27.652
-22.524 8.382 27.693
-22.733 8.401 27.834
-22.962 8.429 27.885
-23.212 8.453 27.795
-23.461 8.488 27.705
-23.67 8.499 27.946
-23.848 8.503 28.349
-24.058 8.513 28.53
-24.307 8.548 28.46
-24.557 8.572 28.33
-24.796 8.599 28.35
-25.026 8.617 28.411
-25.235 8.635 28.542
-25.474 8.662 28.552
-25.704 8.689 28.563
-25.913 8.699 28.784
-26.162 8.725 28.725
-26.493 8.789 28.042
-26.814 8.845 27.449
-27.095 8.885 27.088
-27.354 8.92 26.978
-27.553 8.931 27.239
-27.722 8.926 27.702
-27.9 8.929 28.094
-28.099 8.941 28.386
-28.338 8.967 28.366
-28.619 9.007 28.015
-28.838 9.026 28.156
-29.047 9.036 28.368
-29.296 9.071 28.258
-29.566 9.104 28.047
-29.806 9.129 27.997
-30.046 9.155 27.978
-30.285 9.182 27.968
-30.525 9.207 27.928
-30.774 9.234 27.909
-31.044 9.276 27.638
-31.274 9.293 27.678
-31.503 9.32 27.739
-31.742 9.346 27.719
-32.013 9.379 27.479
-32.313 9.428 27.077
-32.579 9.215 27.022
-32.542 9.446 27.128
-32.818 9.241 26.993
-32.792 9.48 27.007
-33.088 9.284 26.792
-33.409 9.331 26.22
-33.505 9.615 25.411
-33.164 9.552 26.164
-33.689 9.372 25.919
-33.704 9.617 25.723
-33.898 9.392 26.12
-33.933 9.644 25.733
-34.107 9.402 26.301
-34.173 9.671 25.744
-34.998 9.721 26.549
-34.728 9.689 26.79
-37.148 9.826 23.543
-37.403 10.096 23.237
-37.183 10.077 23.136
-37.662 10.13 23.127
-37.943 10.163 22.876
-38.202 10.196 22.716
66.025 1.407 -25.139
66.274 1.388 -25.23
65.786 1.42 -24.857
65.547 1.447 -24.817
65.308 1.46 -24.525
65.059 1.479 -24.434
64.82 1.508 -24.333
64.571 1.519 -24.151
64.331 1.554 -24.222
64.082 1.572 -24.151
63.821 1.618 -24.663
63.561 1.657 -25.034
63.321 1.685 -24.974
63.072 1.705 -24.842
62.833 1.724 -24.741
62.584 1.75 -24.771
62.344 1.777 -24.741
62.095 1.804 -24.74
61.856 1.824 -24.589
61.606 1.85 -24.619
61.357 1.869 -24.528
43.319 2.267 8.503
43.527 2.261 7.99
43.335 2.512 8.307
43.533 2.514 7.704
43.111 2.265 9.056
43.117 2.517 8.73
42.893 2.279 9.438
42.909 2.525 9.283
42.675 2.284 9.831
42.68 2.537 9.564
42.472 2.542 9.957
42.243 2.553 10.178
42.035 2.56 10.721
41.806 2.57 10.913
41.577 2.592 11.154
41.348 2.61 11.235
41.13 2.622 11.517
40.901 2.635 11.809
40.692 2.639 12.191
40.453 2.666 12.242
40.224 2.685 12.373
39.995 2.696 12.554
39.766 2.716 12.725
39.537 2.743 12.766
39.318 2.755 13.068
39.079 2.773 13.118
38.85 2.792 13.249
38.621 2.81 13.34
38.392 2.839 13.431
38.173 2.842 13.753
37.944 2.86 13.864
37.704 2.888 13.895
37.475 2.906 13.986
37.246 2.934 14.056
37.007 2.952 14.147
36.778 2.971 14.278
36.548 2.989 14.319
36.309 3.017 14.39
36.09 3.028 14.621
35.861 3.055 14.662
35.622 3.073 14.732
35.392 3.09 14.783
35.163 3.119 14.884
34.934 3.138 15.005
34.684 3.17 14.804
34.445 3.188 14.855
34.215 3.215 14.886
33.986 3.233 14.987
33.757 3.252 15.108
33.518 3.279 15.118
33.288 3.297 15.189
33.059 3.316 15.31
32.809 3.351 15.21
32.57 3.376 15.18
32.341 3.396 15.311
32.111 3.413 15.362
31.872 3.44 15.402
31.643 3.459 15.523
31.403 3.484 15.453
31.174 3.503 15.554
30.935 3.529 15.545
30.695 3.555 15.525
30.476 3.566 15.736
30.237 3.592 15.687
29.987 3.625 15.526
29.747 3.651 15.497
29.508 3.677 15.477
29.278 3.695 15.558
29.039 3.729 15.447
28.799 3.755 15.408
28.56 3.774 15.509
28.32 3.8 15.469
28.091 3.826 15.469
27.841 3.851 15.379
27.602 3.886 15.319
27.362 3.913 15.31
27.122 3.937 15.2
26.873 3.962 15.12
26.633 3.989 15.12
26.394 4.023 15.03
26.154 4.048 14.93
25.904 4.082 14.83
25.664 4.107 14.76
25.415 4.133 14.7
25.175 4.159 14.65
24.936 4.185 14.651
24.696 4.21 14.571
24.457 4.245 14.511
24.206 4.269 14.35
23.967 4.296 14.371
23.728 4.322 14.361
23.488 4.347 14.281
23.238 4.381 14.171
22.999 4.408 14.172
22.759 4.432 14.061
22.52 4.459 14.072
22.28 4.484 14.012
22.03 4.519 13.902
21.791 4.545 13.862
21.561 4.563 13.943
21.312 4.588 13.893
21.072 4.623 13.783
20.822 4.647 13.683
20.593 4.665 13.764
20.343 4.699 13.613
20.104 4.725 13.584
19.864 4.752 13.594
19.604 4.785 13.424
19.364 4.81 13.324
19.125 4.836 13.294
18.885 4.862 13.264
18.646 4.888 13.265
18.406 4.914 13.235
18.157 4.94 13.195
17.917 4.966 13.165
17.678 5.001 13.085
17.438 5.018 13.116
17.189 5.053 13.006
16.949 5.078 12.966
16.699 5.103 12.866
16.47 5.13 12.907
16.231 5.157 12.927
16.001 5.167 13.078
15.762 5.193 13.059
15.512 5.227 12.938
15.262 5.261 12.768
15.023 5.287 12.758
14.783 5.313 12.749
14.544 5.33 12.769
14.304 5.366 12.709
14.055 5.392 12.66
13.815 5.417 12.59
13.586 5.436 12.711
13.347 5.463 12.751
13.117 5.48 12.782
12.878 5.508 12.832
12.628 5.532 12.712
12.389 5.559 12.723
12.149 5.584 12.643
11.909 5.61 12.613
11.66 5.636 12.584
11.431 5.663 12.604
11.181 5.689 12.564
10.941 5.714 12.504
10.702 5.75 12.464
10.462 5.766 12.455
10.223 5.794 12.505
9.994 5.811 12.576
9.755 5.839 12.637
9.515 5.865 12.617
9.275 5.891 12.577
9.036 5.917 12.548
8.797 5.935 12.619
8.557 5.961 12.589
8.307 5.986 12.509
8.078 6.013 12.519
7.839 6.041 12.57
7.589 6.066 12.51
7.36 6.093 12.52
7.131 6.111 12.621
6.881 6.137 12.592
6.652 6.156 12.683
6.412 6.182 12.673
6.173 6.208 12.633
5.933 6.234 12.634
5.704 6.253 12.735
5.475 6.272 12.876
5.236 6.299 12.876
4.986 6.332 12.685
4.757 6.351 12.817
4.517 6.377 12.787
4.267 6.403 12.747
4.038 6.42 12.788
3.778 6.454 12.658
3.549 6.472 12.748
3.309 6.499 12.729
3.111 6.512 13.081
2.862 6.538 13.051
2.612 6.571 12.891
1.161 6.638 15.054
1.339 6.641 14.481
0.922 6.665 15.074
0.662 6.696 14.804
0.402 6.731 14.683
0.203 6.734 15.036
0.005 6.746 15.368
-0.224 6.765 15.478
-0.484 6.799 15.328
-0.744 6.832 15.138
-0.953 6.844 15.409
-1.151 6.847 15.782
-1.329 6.853 16.284
-1.538 6.864 16.546
-1.767 6.883 16.667
-1.986 6.903 16.848
-2.205 6.913 17.05
-2.414 6.924 17.281
-2.623 6.937 17.603
-2.831 6.948 17.845
-3.02 6.952 18.257
-3.218 6.965 18.609
-3.406 6.961 19.102
-3.605 6.973 19.434
-3.824 6.982 19.575
-4.073 7.018 19.535
-4.303 7.036 19.606
-4.512 7.048 19.878
-4.731 7.067 20.019
-4.95 7.076 20.18
-5.169 7.095 20.301
-5.418 7.131 20.251
-5.637 7.15 20.382
-5.836 7.152 20.704
-6.014 7.148 21.237
-6.243 7.176 21.278
-6.483 7.193 21.329
-6.712 7.221 21.379
-6.931 7.24 21.54
-7.14 7.251 21.772
-7.349 7.262 22.013
-7.588 7.288 22.014
-7.879 7.336 21.542
-8.17 7.384 21.05
-8.409 7.411 21.07
-8.608 7.414 21.413
-8.796 7.418 21.855
-9.015 7.437 21.966
-9.254 7.464 21.987
-9.484 7.48 21.997
-9.703 7.5 22.178
-9.953 7.525 22.078
-10.182 7.553 22.139
-10.391 7.563 22.36
-10.63 7.59 22.381
-10.86 7.607 22.412
-11.089 7.635 22.502
-11.318 7.653 22.563
-11.558 7.679 22.553
-11.797 7.705 22.524
-12.016 7.724 22.655
-12.235 7.743 22.796
-12.454 7.753 22.987
-12.684 7.78 22.988
-12.913 7.798 23.098
-13.132 7.817 23.219
-13.392 7.85 23.029
-13.642 7.884 22.909
-13.871 7.903 23.04
-14.059 7.906 23.402
-14.238 7.902 23.905
-14.446 7.922 24.096
-14.666 7.94 24.207
-14.926 7.973 24.017
-15.165 8.001 24.057
-15.394 8.019 24.138
-15.644 8.043 24.018
-15.894 8.078 23.938
-16.123 8.095 23.968
-16.373 8.129 23.828
-16.643 8.163 23.648
-16.882 8.189 23.608
-17.142 8.222 23.418
-17.372 8.249 23.448
-17.621 8.274 23.388
-17.891 8.317 23.157
-18.121 8.333 23.178
-18.319 8.345 23.46
-18.518 8.357 23.782
-18.717 8.369 24.063
-18.905 8.372 24.425
-19.063 8.36 25.089
-19.262 8.371 25.321
-19.481 8.39 25.462
-19.659 8.394 25.894
-19.878 8.404 26.086
-20.087 8.423 26.237
-20.327 8.451 26.267
-20.546 8.468 26.348
-20.775 8.487 26.449
-20.984 8.507 26.65
-21.213 8.524 26.691
-21.443 8.551 26.741
-21.662 8.56 26.873
-21.83 8.566 27.385
-22.059 8.583 27.396
-22.299 8.609 27.406
-22.548 8.635 27.357
-22.727 8.648 27.729
-23.048 8.695 27.156
-23.298 8.729 27.036
-23.466 8.724 27.519
-23.654 8.737 27.881
-23.863 8.747 28.072
-24.082 8.766 28.213
-24.322 8.791 28.144
-24.551 8.819 28.214
-24.78 8.837 28.305
-25 8.854 28.366
-25.239 8.881 28.356
-25.479 8.908 28.377
-25.698 8.926 28.498
-25.917 8.944 28.578
-26.187 8.977 28.368
-26.819 9.09 27.233
-26.559 9.057 27.424
-27.089 9.122 27.003
-27.349 9.156 26.822
-27.588 9.182 26.813
-27.767 9.187 27.255
-27.925 9.182 27.758
-28.103 9.186 28.19
-28.353 9.211 28.11
-28.603 9.245 27.98
-28.842 9.272 28.001
-29.041 9.282 28.212
-29.291 9.308 28.162
-29.561 9.35 27.921
-29.79 9.368 27.972
-30.04 9.393 27.892
-30.279 9.428 27.842
-30.519 9.454 27.812
-30.758 9.471 27.833
-31.028 9.514 27.602
-31.278 9.538 27.502
-31.497 9.558 27.643
-31.737 9.583 27.614
-32.017 9.626 27.353
-32.317 9.674 26.891
-32.557 9.69 26.892
-32.796 9.726 26.832
-33.52 9.86 25.165
-33.229 9.819 25.506
-33.718 9.871 25.446
-33.928 9.881 25.628
-34.167 9.907 25.608
-34.412 9.696 25.694
-34.457 9.957 25.247
-36.883 10.028 23.547
-37.208 10.33 22.799
-36.908 10.281 23.201
-37.427 10.349 22.93
-37.657 10.368 23.031
-37.937 10.409 22.76
66.523 1.362 -25.23
66.312 1.616 -24.783
66.551 1.589 -24.844
66.062 1.641 -24.893
65.823 1.662 -24.702
65.574 1.68 -24.611
65.324 1.716 -24.681
65.085 1.728 -24.409
64.847 1.749 -24.218
64.597 1.774 -24.308
63.598 1.894 -24.658
63.847 1.865 -24.738
63.349 1.92 -24.667
63.109 1.939 -24.596
62.87 1.958 -24.465
62.621 1.985 -24.455
62.372 2.013 -24.384
62.133 2.032 -24.293
61.883 2.058 -24.323
61.633 2.089 -24.584
43.719 2.537 6.698
43.937 2.529 6.155
43.746 2.766 6.723
43.964 2.769 6.22
43.351 2.759 8.191
43.548 2.767 7.437
43.122 2.771 8.483
42.925 2.762 9.197
42.706 2.775 9.509
42.498 2.771 10.002
42.259 2.8 10.123
42.04 2.812 10.374
41.832 2.808 10.867
41.603 2.821 11.149
41.374 2.848 11.2
41.145 2.868 11.391
40.916 2.879 11.593
40.698 2.891 11.874
40.469 2.903 12.136
40.25 2.915 12.428
40.021 2.934 12.529
39.792 2.954 12.7
39.563 2.972 12.781
39.324 2.999 12.821
39.095 3.019 12.963
38.866 3.039 13.134
38.637 3.058 13.275
38.418 3.068 13.456
38.178 3.093 13.406
37.939 3.112 13.497
37.72 3.132 13.689
37.481 3.16 13.739
37.262 3.17 13.931
37.033 3.19 14.102
36.793 3.208 14.173
36.564 3.235 14.183
36.325 3.252 14.234
36.096 3.281 14.335
35.866 3.298 14.365
35.627 3.325 14.396
35.398 3.344 14.527
35.168 3.362 14.608
34.939 3.381 14.709
34.71 3.4 14.86
34.471 3.426 14.84
34.231 3.444 14.901
34.002 3.472 14.971
33.773 3.489 15.022
33.544 3.508 15.133
33.304 3.535 15.164
33.065 3.561 15.104
32.825 3.587 15.094
32.596 3.614 15.145
32.357 3.633 15.216
32.127 3.65 15.256
31.898 3.669 15.407
31.669 3.697 15.468
31.44 3.715 15.539
31.2 3.742 15.579
30.961 3.767 15.489
30.721 3.792 15.44
30.482 3.82 15.51
30.242 3.845 15.43
30.003 3.871 15.411
29.753 3.905 15.26
29.513 3.93 15.2
29.273 3.956 15.13
29.034 3.983 15.181
28.805 4 15.222
28.565 4.026 15.182
28.326 4.052 15.162
28.076 4.085 14.992
27.836 4.112 15.002
27.607 4.131 15.113
27.368 4.156 15.053
27.128 4.183 15.044
26.888 4.208 14.964
26.639 4.242 14.844
26.409 4.268 14.854
26.16 4.294 14.784
25.92 4.32 14.784
25.68 4.345 14.715
25.441 4.372 14.705
25.201 4.397 14.665
24.962 4.423 14.635
24.712 4.448 14.515
24.472 4.482 14.425
24.223 4.507 14.325
23.983 4.541 14.215
23.733 4.567 14.165
23.494 4.592 14.105
23.254 4.618 14.066
23.014 4.644 14.026
22.775 4.669 13.976
22.546 4.689 14.107
22.296 4.724 14.027
22.046 4.757 13.847
21.807 4.783 13.837
21.567 4.8 13.838
21.328 4.834 13.747
21.088 4.86 13.698
20.849 4.886 13.698
20.609 4.912 13.648
20.359 4.937 13.568
20.12 4.972 13.508
19.87 4.998 13.428
19.63 5.023 13.378
19.381 5.048 13.299
19.151 5.075 13.329
18.902 5.101 13.259
18.672 5.127 13.27
18.422 5.152 13.17
18.183 5.178 13.14
17.933 5.213 13.08
17.694 5.238 12.98
17.444 5.272 12.88
17.204 5.299 12.86
16.965 5.315 12.861
16.725 5.342 12.881
16.476 5.377 12.771
16.246 5.394 12.802
16.017 5.413 12.923
15.778 5.439 12.913
15.528 5.473 12.793
15.289 5.491 12.843
15.059 5.519 12.914
14.82 5.544 12.874
14.57 5.578 12.724
14.321 5.604 12.694
14.081 5.63 12.634
13.842 5.656 12.645
13.602 5.673 12.625
13.362 5.7 12.646
13.133 5.718 12.737
12.894 5.745 12.767
12.654 5.77 12.687
12.415 5.797 12.718
12.165 5.832 12.597
11.936 5.849 12.658
11.696 5.867 12.729
11.457 5.903 12.679
11.207 5.926 12.519
10.957 5.961 12.439
10.718 5.988 12.439
10.478 6.005 12.44
10.249 6.033 12.53
10.01 6.059 12.491
9.77 6.085 12.491
9.521 6.111 12.451
9.281 6.128 12.452
9.042 6.154 12.452
8.813 6.182 12.513
8.563 6.206 12.403
8.334 6.234 12.484
8.084 6.259 12.353
7.844 6.286 12.404
7.625 6.296 12.565
7.386 6.323 12.596
7.147 6.35 12.616
6.907 6.376 12.607
6.668 6.403 12.587
6.438 6.421 12.668
6.189 6.446 12.608
5.959 6.473 12.628
5.72 6.49 12.669
5.491 6.51 12.81
5.241 6.543 12.63
5.002 6.569 12.63
4.752 6.595 12.58
4.513 6.622 12.581
4.294 6.633 12.802
4.034 6.675 12.592
3.794 6.701 12.572
3.555 6.727 12.552
3.336 6.738 12.784
3.096 6.764 12.754
2.877 6.775 12.946
2.648 6.794 13.077
2.393 6.583 13.162
2.409 6.82 13.067
0.637 6.958 14.417
0.907 6.916 14.688
0.397 6.984 14.377
-0.968 7.095 15.033
-0.759 7.084 14.781
-1.136 7.093 15.646
-1.324 7.09 16.179
-1.563 7.115 16.129
-1.761 7.129 16.531
-1.97 7.14 16.763
-2.21 7.166 16.743
-2.459 7.192 16.683
-2.658 7.204 17.005
-2.846 7.201 17.518
-3.076 7.218 17.579
-3.777 7.215 19.791
-3.609 7.218 19.188
-4.088 7.27 19.169
-4.338 7.295 19.089
-4.496 7.285 19.782
-4.705 7.296 20.044
-4.934 7.315 20.145
-5.163 7.341 20.135
-5.392 7.359 20.236
-5.621 7.387 20.317
-5.83 7.398 20.548
-6.049 7.408 20.74
-6.299 7.443 20.66
-6.528 7.461 20.741
-6.737 7.481 20.922
-6.936 7.484 21.264
-7.155 7.494 21.475
-7.384 7.521 21.486
-7.634 7.556 21.406
-7.965 7.618 20.622
-8.225 7.652 20.442
-8.393 7.648 21.005
-8.582 7.652 21.407
-8.79 7.664 21.679
-9.009 7.683 21.81
-9.228 7.701 21.941
-9.458 7.719 22.012
-9.687 7.738 22.123
-9.916 7.765 22.143
-10.166 7.791 22.114
-10.405 7.817 22.074
-10.635 7.835 22.145
-10.854 7.853 22.246
-11.073 7.873 22.437
-11.312 7.899 22.427
-11.542 7.916 22.468
-11.781 7.943 22.468
-12 7.962 22.619
-12.219 7.972 22.781
-12.439 7.99 22.892
-12.647 8.001 23.143
-12.887 8.037 23.083
-13.137 8.061 22.983
-13.386 8.096 22.873
-13.626 8.122 22.853
-13.845 8.132 23.025
-14.043 8.144 23.357
-14.232 8.148 23.759
-14.43 8.16 24.031
-14.68 8.185 23.981
-14.909 8.212 24.011
-15.139 8.229 24.042
-15.378 8.257 24.073
-15.628 8.29 23.922
-15.857 8.308 24.013
-16.107 8.333 23.923
-16.367 8.366 23.723
-16.617 8.4 23.592
-16.877 8.434 23.432
-17.136 8.468 23.302
-17.366 8.486 23.383
-17.646 8.526 23.001
-17.896 8.56 22.891
-18.105 8.572 23.143
-18.283 8.576 23.575
-18.492 8.587 23.837
-18.711 8.606 23.978
-18.91 8.618 24.25
-19.078 8.614 24.783
-19.256 8.609 25.255
-19.465 8.628 25.426
-19.643 8.632 25.849
-19.862 8.652 26.01
-20.081 8.661 26.161
-20.3 8.689 26.242
-20.54 8.705 26.243
-20.759 8.724 26.353
-20.988 8.751 26.414
-21.197 8.762 26.646
-21.416 8.781 26.777
-21.646 8.799 26.857
-21.865 8.817 26.968
-22.135 8.859 26.718
-22.364 8.877 26.798
-22.573 8.896 26.939
-22.823 8.921 26.839
-23.083 8.955 26.709
-23.302 8.974 26.83
-23.491 8.977 27.192
-23.669 8.981 27.595
-23.868 8.991 27.846
-24.087 9.011 28.017
-24.336 9.045 27.877
-24.546 9.055 28.069
-24.775 9.074 28.19
-25.014 9.099 28.13
-25.243 9.127 28.2
-25.473 9.144 28.241
-25.692 9.162 28.332
-25.921 9.19 28.413
-26.212 9.23 28.041
-26.813 9.326 27.088
-26.553 9.293 27.288
-27.073 9.36 26.947
-27.323 9.394 26.827
-27.613 9.434 26.456
-28.118 9.429 27.894
-27.939 9.427 27.532
-28.347 9.458 27.995
-28.607 9.49 27.784
-28.836 9.509 27.875
-29.045 9.519 28.076
-29.285 9.554 28.026
-29.555 9.587 27.816
-29.794 9.613 27.796
-30.034 9.639 27.766
-30.294 9.673 27.596
-30.513 9.691 27.707
-30.773 9.725 27.567
-31.012 9.751 27.547
-31.262 9.776 27.427
-31.491 9.803 27.488
-31.731 9.82 27.478
-31.991 9.854 27.338
-32.322 9.919 26.695
-32.561 9.945 26.665
-32.842 9.977 26.395
-33.784 10.14 24.879
-33.534 10.104 24.918
-33.962 10.143 25.231
-34.232 10.176 25.06
-34.523 10.216 24.689
-34.727 9.99 25.046
-34.803 10.258 24.388
-34.957 10.009 25.137
-35.012 10.277 24.569
-36.057 10.158 24.144
-35.807 10.132 24.224
-36.092 10.42 23.757
-35.862 10.401 23.666
-36.307 10.192 24.024
-36.392 10.459 23.356
-36.587 10.234 23.783
-36.632 10.494 23.296
-36.963 10.551 22.713
-37.284 10.598 22.171
-37.493 10.609 22.413
-37.701 10.629 22.604
-37.931 10.646 22.655
43.772 3.005 6.728
43.969 3.021 5.864
43.574 2.997 7.493
43.367 2.995 8.066
43.138 3.008 8.358
42.93 3.013 8.82
42.722 3.013 9.464
42.514 3.019 9.936
42.285 3.03 10.148
42.067 3.042 10.43
41.838 3.053 10.682
41.619 3.066 10.983
41.39 3.086 11.165
41.161 3.106 11.316
40.943 3.118 11.587
40.714 3.129 11.829
40.485 3.148 11.97
40.266 3.16 12.232
40.037 3.179 12.343
39.808 3.198 12.484
39.579 3.218 12.675
39.35 3.238 12.846
39.11 3.256 12.867
38.881 3.275 12.998
38.652 3.294 13.129
38.423 3.313 13.27
38.184 3.339 13.231
37.954 3.366 13.261
37.725 3.376 13.442
37.496 3.396 13.624
37.267 3.415 13.755
37.038 3.433 13.815
36.798 3.46 13.816
36.58 3.481 14.057
36.351 3.491 14.239
36.111 3.517 14.199
35.872 3.543 14.179
35.632 3.57 14.19
35.392 3.594 14.09
35.174 3.615 14.301
34.945 3.634 14.442
34.716 3.654 14.593
34.476 3.671 14.644
34.257 3.691 14.805
34.028 3.709 14.906
33.789 3.736 14.896
33.549 3.754 14.987
33.32 3.772 15.058
33.091 3.791 15.179
32.862 3.818 15.22
32.622 3.844 15.21
32.393 3.863 15.321
32.154 3.89 15.331
31.924 3.908 15.422
31.685 3.934 15.403
31.445 3.961 15.393
31.206 3.987 15.363
30.966 4.012 15.293
30.737 4.039 15.314
30.498 4.057 15.395
30.258 4.083 15.355
30.018 4.109 15.335
29.789 4.136 15.356
29.539 4.161 15.286
29.3 4.186 15.196
29.071 4.205 15.347
28.831 4.231 15.297
28.591 4.265 15.207
28.342 4.29 15.117
28.102 4.315 15.037
27.863 4.342 15.058
27.633 4.369 15.078
27.394 4.395 15.048
27.134 4.427 14.828
26.894 4.452 14.748
26.655 4.479 14.778
26.415 4.504 14.698
26.175 4.531 14.719
25.946 4.557 14.699
25.696 4.591 14.569
25.457 4.617 14.549
25.217 4.642 14.479
24.977 4.66 14.51
24.728 4.694 14.4
24.488 4.72 14.38
